ply
format ascii 1.0
comment FreeCAD generated
element vertex 1641
property float x
property float y
property float z
end_header
-1158.599 -136.2517 -273.9803 
-1128.381 -136.2647 -325.8240 
-1068.723 -137.3671 -429.9908 
-1038.133 -136.8663 -481.6057 
-1003.313 -130.5157 -530.6155 
-973.4443 -131.0116 -582.6743 
-1184.882 -182.4687 -150.5530 
-1153.089 -180.3038 -201.4268 
-1121.782 -178.8118 -252.6002 
-1063.449 -181.7455 -357.5826 
-1031.612 -179.5198 -408.4293 
-1000.050 -177.6741 -459.4453 
-1089.865 -176.4756 -303.3978 
-967.8146 -174.8981 -510.0470 
-930.7623 -165.4602 -557.6821 
-1145.203 -221.0700 -127.4100 
-1115.153 -221.3163 -179.3576 
-1054.194 -220.6194 -282.7230 
-1024.907 -221.9199 -335.1401 
-992.9932 -219.5876 -385.9395 
-960.4523 -216.3886 -436.3528 
-1081.969 -217.2279 -229.3748 
-924.2791 -208.1665 -484.5291 
-897.2461 -212.5842 -538.3344 
-1113.234 -270.3345 -109.0156 
-1081.742 -268.5856 -160.0747 
-1048.815 -264.8527 -210.2502 
-1012.157 -255.9591 -258.1275 
-978.7473 -251.5590 -308.0060 
-944.3276 -245.7619 -357.2623 
-918.7707 -252.2208 -411.9766 
-888.4957 -252.1552 -463.7853 
-949.1970 -168.8934 -219.3549 
-966.6645 -151.2478 -159.6589 
-887.6987 -125.6496 -251.9353 
-832.1552 -90.64049 -288.1827 
-926.6672 -54.13513 -64.57422 
-738.2192 -2.539369 -300.7868 
-1075.206 -311.2191 -86.88936 
-1040.643 -305.2228 -136.0570 
-849.6046 -291.8461 -441.1276 
-979.7830 -221.0609 -98.57748 
-809.3412 -236.1665 -416.3320 
-1336.797 -28.90115 -239.0779 
-1304.224 -29.98695 -289.5315 
-1153.250 -54.65858 -479.2848 
-1125.833 -50.67670 -532.7451 
-1202.812 -98.72809 -299.8439 
-1160.322 -78.63424 -413.9617 
-1100.569 -75.50655 -518.0131 
-1198.387 -103.0769 -297.2637 
-1200.184 -163.1643 -159.4171 
-1157.727 -173.9651 -204.1066 
-1123.654 -176.5252 -253.6855 
-1065.964 -140.4430 -428.3873 
-1038.133 -136.8690 -481.6056 
-1098.874 -200.8791 -239.2359 
-1079.857 -188.6421 -297.5941 
-1081.283 -218.1680 -228.9781 
-993.7052 -242.3861 -316.8047 
-977.1695 -227.7108 -376.6097 
-935.6958 -237.5447 -421.8729 
-947.1948 -162.5524 -218.0725 
-946.3719 -116.0522 -147.0634 
-916.5716 -114.4135 -199.1336 
-885.2495 -114.2703 -250.3164 
-913.5669 -70.05770 -126.8522 
-883.3862 -68.79272 -178.7007 
-853.7348 -67.00752 -230.8577 
-821.5799 -67.68287 -281.5549 
-909.1698 -27.07030 -53.75903 
-880.3504 -24.46745 -106.4012 
-849.6234 -23.73940 -157.9310 
-816.2814 -25.58137 -207.9360 
-786.9438 -23.48788 -260.2760 
-1015.926 -282.4003 -190.8678 
-1010.956 -256.3586 -257.4167 
-867.6884 -273.4559 -451.6640 
-984.0781 -235.4655 -171.2145 
-958.0450 -230.1243 -225.4814 
-929.7827 -226.9740 -278.4484 
-895.9967 -229.2523 -328.1945 
-848.8688 -244.6431 -370.1607 
-975.5223 -196.5653 -95.69625 
-970.2108 -170.8588 -162.0462 
-891.1616 -186.6954 -254.8458 
-856.3751 -189.9570 -304.0085 
-820.3769 -194.4095 -352.4646 
-791.0383 -192.3170 -404.8040 
-970.9921 -122.7821 -91.97264 
-834.8301 -132.8960 -290.3633 
-795.8140 -140.3145 -337.0596 
-756.7103 -147.8192 -383.7048 
-933.5520 -81.34291 -69.05869 
-787.2075 -70.53755 -330.9590 
-723.0679 -102.6475 -363.0054 
-743.8934 -34.87125 -304.6198 
-689.0542 -57.84085 -342.0894 
-1018.585 -310.7140 -122.9709 
-848.6728 -292.1445 -440.5757 
-976.4092 -273.9292 -97.29549 
-811.9492 -250.0012 -418.0795 
-1592.016 -388.1950 982.1615 
-1554.990 -387.3369 920.1108 
-1510.228 -426.0477 934.3528 
-1490.444 -425.5891 901.1976 
-1447.987 -424.6051 830.0459 
-1574.487 -394.3900 941.6595 
-1681.708 -375.4595 1157.441 
-1653.228 -377.8763 1104.527 
-1626.261 -382.3851 1050.681 
-1598.440 -385.7126 997.3616 
-1533.523 -379.5422 896.4336 
-1503.914 -380.3986 844.2143 
-1501.165 -428.2682 915.0677 
-1643.636 -416.2832 1179.595 
-1613.917 -416.9864 1127.444 
-1586.208 -420.4699 1074.054 
-1558.497 -423.9490 1020.667 
-1526.531 -421.5451 969.8997 
-1463.352 -417.7781 867.9014 
-1607.434 -459.6929 1200.596 
-1574.647 -456.1534 1150.335 
-1546.458 -458.9728 1097.241 
-1520.736 -465.2035 1042.629 
-1484.992 -457.5747 994.1879 
-1458.144 -462.2487 940.2685 
-1423.717 -456.4400 891.0174 
-1563.977 -493.0695 1226.066 
-1535.792 -495.8950 1172.970 
-1505.453 -495.7400 1121.201 
-1475.425 -496.0159 1069.240 
-1447.951 -499.8246 1015.706 
-1414.235 -495.0004 966.0165 
-1383.998 -494.9875 914.1844 
-1525.378 -533.1647 1248.544 
-1495.338 -533.4238 1196.590 
-1467.776 -537.1108 1143.111 
-1438.486 -538.4067 1090.696 
-1405.132 -534.0833 1040.783 
-1375.184 -534.4703 988.7728 
-1342.384 -530.9120 938.5194 
-1487.793 -574.6624 1270.397 
-1453.981 -569.7057 1220.766 
-1425.612 -572.2758 1167.784 
-1399.143 -577.4730 1113.632 
-1366.895 -574.6794 1063.038 
-1335.441 -572.9833 1011.955 
-1305.480 -573.3510 959.9534 
-1444.048 -607.6407 1296.044 
-1416.977 -612.0058 1242.262 
-1384.744 -609.2321 1191.660 
-1354.533 -609.2562 1139.811 
-1326.194 -611.8667 1086.810 
-1297.396 -613.8444 1034.092 
-1267.535 -614.3505 982.0285 
-1438.593 -651.7684 1368.564 
-1404.768 -646.7944 1318.941 
-1374.942 -647.3491 1266.856 
-1346.919 -650.3984 1213.660 
-1313.625 -646.1582 1163.711 
-1285.172 -648.6107 1110.781 
-1252.831 -645.6888 1060.244 
-1227.268 -652.1396 1005.533 
-1191.985 -645.1480 956.8088 
-1577.766 -348.7560 870.4592 
-1533.144 -361.6837 827.0316 
-1544.351 -412.5222 959.3908 
-1508.002 -417.3195 911.1392 
-1479.621 -445.2125 927.6886 
-2070.229 316.1905 176.9624 
-2059.659 316.4355 159.2479 
-2243.218 383.0862 273.8748 
-2205.871 341.2605 295.5818 
-2171.725 346.6794 246.1572 
-2142.333 345.5237 193.8046 
-2116.452 339.5126 139.2898 
-2078.474 350.2301 92.22451 
-2046.981 351.9808 41.16631 
-2160.406 310.6606 322.2881 
-2128.035 313.6242 271.7700 
-2105.600 302.8479 215.1328 
-2040.608 309.1218 114.2510 
-2010.332 309.1889 62.44311 
-1977.892 312.2486 11.96764 
-1947.771 312.1006 -39.93620 
-2064.643 317.6864 169.9031 
-2069.587 320.1689 166.9867 
-2144.876 301.3824 331.4266 
-2039.507 290.6057 184.5270 
-2005.121 287.7378 135.1307 
-1975.913 289.9584 82.71546 
-1948.446 293.8901 29.28473 
-1364.921 -104.6936 -23.21414 
-1333.348 -103.9618 -76.12580 
-1422.329 -145.7724 162.2506 
-1391.146 -145.0497 109.9923 
-1371.783 -184.3492 166.7989 
-1321.854 -183.1919 83.12565 
-1514.518 -65.28984 143.4958 
-1483.179 -63.75385 92.34192 
-1454.715 -66.19151 39.41842 
-1423.572 -64.92664 -11.85621 
-1391.687 -62.63399 -62.67304 
-1361.399 -62.54996 -114.4736 
-1330.729 -61.93924 -166.0396 
-1356.318 -107.1959 -42.18451 
-1476.558 -106.2695 165.5797 
-1443.564 -102.4435 115.4456 
-1413.443 -102.5902 63.54239 
-1382.065 -101.0000 12.41259 
-1322.513 -102.2491 -91.81956 
-1291.743 -101.4982 -143.3230 
-1409.092 -148.2454 135.3819 
-1435.942 -143.5746 189.2999 
-1374.201 -141.7962 86.41607 
-1343.463 -141.0906 34.89231 
-1313.282 -141.1545 -16.97398 
-1281.902 -139.5611 -68.10232 
-1251.622 -139.4888 -119.9081 
-1403.077 -191.5993 208.2464 
-1306.667 -183.6795 56.25963 
-1282.262 -191.7312 0.8359879 
-1249.862 -188.7267 -49.66393 
-1216.818 -184.8307 -99.76689 
-1366.645 -183.0191 160.2295 
-1336.247 -182.7832 108.4966 
-1366.690 -234.7529 229.3621 
-1333.343 -230.4397 179.4450 
-1301.002 -227.5172 128.9085 
-1271.974 -229.1756 76.33215 
-1242.429 -230.1198 24.07376 
-1209.091 -225.8172 -25.84812 
-1178.876 -225.8347 -77.69382 
-1326.813 -273.0810 252.6268 
-1296.426 -272.8607 200.8870 
-1266.756 -273.6315 148.7058 
-1236.622 -273.7604 96.81055 
-1205.154 -272.0454 45.73634 
-1176.203 -273.8111 -6.887921 
-1139.860 -265.3535 -54.95945 
-1285.198 -309.0043 276.9624 
-1253.748 -307.3148 225.8769 
-1223.330 -307.0516 174.1562 
-1193.394 -307.4546 122.1388 
-1162.096 -305.9736 70.96038 
-1132.510 -306.8611 18.72725 
-1102.104 -306.6148 -33.00099 
-1402.337 -26.34117 -138.4010 
-1364.491 -32.60994 -185.7795 
-1374.241 -84.88017 -52.57088 
-1423.868 -128.8869 126.8326 
-1332.073 -126.3232 -27.98197 
-1426.625 -157.1043 194.6724 
-1379.060 -172.9246 152.9610 
-1315.325 -173.7106 51.23167 
-1308.024 -149.9586 -13.95864 
-1270.994 -155.4253 -61.81301 
-1237.332 -157.5822 -111.6312 
-1362.420 -189.2783 162.6640 
-1330.930 -189.3004 111.5792 
-2630.787 507.1581 835.1409 
-2604.653 552.7305 867.1327 
-2571.089 598.4752 886.6727 
-2537.206 644.2272 905.6781 
-2502.799 689.9915 923.8049 
-2558.828 424.1109 728.0158 
-2599.924 468.1251 872.6765 
-2575.739 513.6523 907.9337 
-2538.441 559.4835 921.2165 
-2504.495 605.2370 940.1164 
-2471.970 650.9576 961.3970 
-2532.274 384.9780 772.7726 
-2570.849 429.0507 913.2066 
-2541.393 474.7001 939.6315 
-2506.941 520.4654 957.6838 
-2475.511 566.1606 980.7988 
-2439.122 611.9708 995.6039 
-2504.481 345.8739 815.4514 
-2535.438 390.1230 943.1196 
-2505.903 435.7744 969.4123 
-2470.616 481.5590 986.0649 
-2438.247 527.2760 1007.607 
-2403.862 573.0397 1025.770 
-2482.574 306.6334 867.9945 
-2437.221 307.6845 791.9897 
-2500.635 351.1815 974.0517 
-2470.377 396.8495 999.1312 
-2434.610 442.6453 1014.979 
-2403.446 488.3342 1038.542 
-2370.538 534.0637 1059.181 
-2436.411 267.9550 879.8890 
-2465.397 312.2500 1004.254 
-2436.019 357.8976 1030.809 
-2400.625 403.6846 1047.282 
-2368.547 449.3949 1069.313 
-2335.502 495.1275 1089.722 
-2633.503 490.1265 811.0933 
-2598.710 444.7679 831.2271 
-2573.193 438.2534 776.4883 
-2574.213 385.1719 845.0208 
-2538.167 393.2183 796.7661 
-2556.602 451.3272 926.3193 
-2453.476 593.9383 989.8278 
-2429.661 626.8704 1004.493 
-2540.784 379.7279 934.7673 
-2522.048 363.8367 875.8528 
-2504.715 346.0048 816.0739 
-2469.291 301.5193 836.5964 
-2514.522 322.5726 949.6477 
-2488.988 316.0824 894.9197 
-2428.910 263.8884 860.1714 
-2468.388 292.8977 976.7661 
-2448.967 277.9541 918.2732 
-2619.032 458.1186 749.4106 
-2553.683 488.5107 928.5753 
-2508.321 522.1644 956.1085 
-2481.260 573.8041 972.9702 
-2554.805 411.3781 926.8386 
-2428.309 599.9995 1004.929 
-2504.223 345.2843 816.3574 
-1600.878 247.5721 -431.0921 
-1560.329 248.5120 -499.0467 
-1553.756 248.6644 -510.0611 
-1445.950 251.1631 -690.7296 
-1517.312 209.7608 -481.8807 
-1479.744 210.6315 -544.8395 
-1446.788 211.3953 -600.0684 
-1359.391 213.4210 -746.5338 
-1520.492 169.9388 -387.2949 
-1491.420 170.6126 -436.0151 
-1430.752 172.0186 -537.6852 
-1360.634 173.6438 -655.1932 
-1351.633 173.8524 -670.2781 
-1364.693 133.8014 -559.1346 
-1332.003 134.5591 -613.9190 
-1262.871 136.1614 -729.7739 
-1263.753 96.39269 -639.0406 
-1366.191 54.27023 -378.1123 
-1344.429 54.77457 -414.5810 
-1324.713 55.23156 -447.6238 
-1271.000 56.47646 -537.6377 
-1240.739 57.17781 -588.3519 
-1285.324 16.39615 -424.3775 
-1245.479 17.31968 -491.1512 
-1556.566 248.1352 -506.1346 
-1584.908 250.7420 -453.1358 
-1521.326 255.0670 -554.8854 
-1489.433 257.3692 -605.6982 
-1461.339 254.4190 -658.8499 
-1516.757 209.7141 -482.9113 
-1486.613 209.5975 -534.8011 
-1430.409 203.7187 -641.0950 
-1396.891 208.2701 -690.9059 
-1363.388 212.7996 -740.7269 
-1545.674 211.5263 -430.2664 
-1453.170 214.0450 -584.6585 
-1330.089 217.0473 -790.6732 
-1510.291 166.9836 -409.7691 
-1419.254 167.4730 -565.0649 
-1385.652 172.1395 -614.8248 
-1325.435 171.8105 -718.6472 
-1295.892 170.8638 -770.9066 
-1475.417 173.4086 -458.7458 
-1443.761 175.3842 -509.7040 
-1354.085 173.9924 -665.8376 
-1350.122 127.8017 -594.2365 
-1256.657 131.6481 -748.0374 
-1466.073 134.6586 -383.8312 
-1435.700 134.8599 -435.5795 
-1405.104 135.3690 -487.1907 
-1373.380 137.4382 -538.1071 
-1309.505 142.1691 -639.6762 
-1278.118 143.7712 -690.8007 
-1247.474 92.67582 -673.2215 
-1214.654 96.26102 -723.4630 
-1424.992 97.99607 -359.8248 
-1393.710 99.45429 -411.0133 
-1361.233 102.5646 -461.4661 
-1330.629 103.0853 -513.0723 
-1301.495 101.5733 -565.5834 
-1273.775 98.10518 -618.9658 
-1391.544 50.77833 -340.5190 
-1328.754 54.00698 -442.7570 
-1267.817 54.67382 -546.1359 
-1357.758 55.69833 -390.1658 
-1290.656 64.89097 -489.7480 
-1235.417 57.67818 -596.6359 
-1204.301 58.90700 -647.9266 
-1171.108 63.00747 -697.9384 
-1259.749 14.15877 -472.0071 
-1347.475 18.24677 -314.6729 
-1317.431 17.99282 -366.6239 
-1288.192 16.62601 -419.0705 
-1224.713 20.80877 -520.8837 
-1192.216 23.94713 -571.3240 
-1158.061 29.37760 -620.7436 
-1133.609 21.39101 -676.1381 
-1091.683 -14.10367 -651.6116 
-1613.887 274.3512 -470.1009 
-1558.402 250.7474 -507.1942 
-1491.195 215.6221 -537.4516 
-1451.688 238.6478 -653.3088 
-1345.853 227.4134 -799.9368 
-1529.959 191.8665 -421.1612 
-1516.001 209.0750 -482.4692 
-1480.223 204.8389 -531.0537 
-1438.957 195.2098 -576.4384 
-1356.140 175.6698 -667.0407 
-1313.898 196.0077 -781.3032 
-1489.788 152.3861 -397.7368 
-1394.485 151.5019 -550.5057 
-1315.733 166.8846 -712.9261 
-1325.768 114.8931 -579.8829 
-1255.234 107.4255 -677.6479 
-1402.563 66.66135 -346.8747 
-1332.308 59.46757 -444.8022 
-1273.252 63.28011 -549.2599 
-1211.257 64.20492 -652.0044 
-1206.277 90.23758 -718.5479 
-1372.306 36.92405 -329.2310 
-1295.782 23.56945 -423.5032 
-1265.304 24.54217 -475.1782 
-1253.658 44.02318 -537.8345 
-1319.316 -15.15414 -298.3320 
-1220.005 -19.97764 -448.7637 
-1212.514 3.587234 -513.8431 
-1593.829 -63.03303 1845.810 
-1438.639 176.8336 1938.995 
-1913.493 317.7023 -89.27950 
-1883.030 318.0283 -140.9723 
-1852.777 318.0631 -192.7947 
-1897.952 306.1184 -80.16618 
-1752.584 286.9570 -273.1888 
-1761.955 -291.7634 1748.622 
-2363.991 229.8852 847.7796 
-2433.195 273.2480 1039.545 
-2397.433 319.0436 1055.400 
-2366.026 364.7383 1078.556 
-2334.985 410.4244 1102.323 
-2304.231 456.1039 1126.573 
-2387.677 189.5880 976.7308 
-2369.439 190.0107 946.1661 
-2325.130 191.0377 871.9103 
-2394.640 234.3934 1064.187 
-2368.014 279.9772 1095.355 
-2334.318 325.7249 1114.674 
-2307.110 371.3223 1144.865 
-2273.861 417.0597 1164.933 
-2290.950 152.0816 903.8856 
-2362.278 195.3951 1099.211 
-2335.683 240.9782 1130.430 
-2303.518 286.6905 1152.314 
-2272.729 332.3708 1176.505 
-2240.505 378.0844 1198.290 
-2329.071 156.4165 1132.816 
-2301.222 202.0287 1161.935 
-2278.557 247.5208 1199.739 
-2255.030 293.0328 1236.099 
-2224.079 338.7169 1260.018 
-2268.654 -6.394862 1223.547 
-2130.121 -3.184034 991.3858 
-2359.299 224.8782 831.2946 
-2432.207 249.4585 997.7545 
-2412.775 234.5303 939.2688 
-2377.712 241.2174 890.4087 
-2380.072 186.2822 958.1156 
-2319.318 186.6952 854.6238 
-2393.654 209.3005 1020.204 
-2336.196 205.1556 914.6827 
-2309.126 367.9940 1142.713 
-2271.213 420.4228 1166.061 
-2282.368 144.3194 876.0859 
-2361.988 159.6176 1038.412 
-2328.676 163.8827 988.4738 
-2300.956 160.4160 935.0922 
-2345.319 224.4711 1119.131 
-2329.997 152.1864 1127.274 
-2316.471 129.0890 1065.150 
-2289.898 124.0357 1011.062 
-2264.966 116.7132 955.9634 
-2231.557 121.1120 906.0843 
-2215.663 352.0977 1268.138 
-2325.777 106.3494 1199.033 
-2314.061 80.75130 1135.796 
-2275.984 91.60571 1088.791 
-2252.510 82.26604 1032.794 
-2227.806 74.62754 977.5547 
-2193.194 80.69081 928.4167 
-2309.658 35.16816 1207.667 
-2271.260 46.46571 1160.860 
-2241.259 46.15383 1108.883 
-2216.427 38.69118 1053.722 
-2177.379 50.88928 1007.316 
-2157.474 36.61445 949.1215 
-2122.834 -8.955608 969.1614 
-2232.009 7.273846 1183.741 
-2205.401 2.267967 1129.673 
-2170.589 8.607627 1080.658 
-2141.708 6.745105 1027.991 
-2415.086 257.6795 868.3347 
-2397.158 209.1337 948.2358 
-2308.081 372.6770 1143.401 
-2274.596 418.0031 1164.009 
-2364.388 176.9267 967.3449 
-2346.694 254.1540 1118.722 
-2314.204 300.4587 1138.749 
-2254.288 130.5729 892.6517 
-2338.938 168.2958 1122.162 
-2330.609 129.1844 1196.465 
-2314.698 191.7819 1206.826 
-2286.229 242.0379 1224.509 
-2256.689 291.2421 1242.815 
-2224.273 337.6186 1262.800 
-2154.032 32.04117 951.1123 
-2267.162 -11.40764 1232.381 
-2178.168 -37.01770 1145.380 
-2101.271 -19.81215 981.8778 
-2289.704 191.8588 812.5406 
-2280.237 192.0782 796.6749 
-2085.162 196.5995 469.7575 
-2213.998 153.8651 774.9246 
-2180.046 154.6520 718.0261 
-2203.188 114.3674 846.0659 
-2174.303 75.28853 886.9158 
-2136.322 76.16884 823.2646 
-2135.957 76.17728 822.6524 
-2082.449 37.66922 822.2377 
-2036.619 38.73139 745.4325 
-2034.656 38.77696 742.1421 
-1915.344 41.54229 542.1914 
-2101.430 -2.519047 943.3026 
-2061.602 -1.595949 876.5568 
-2050.670 -1.342561 858.2361 
-2018.251 -0.5911920 803.9075 
-2329.701 224.0087 779.0695 
-2294.354 231.0875 730.3839 
-2270.417 222.3885 674.6719 
-2234.504 230.2504 626.3353 
-2208.799 223.9971 571.7125 
-2183.730 216.8629 516.6976 
-2155.497 214.1047 463.6313 
-2258.450 187.2656 751.2019 
-2235.106 177.7464 695.1249 
-2198.055 187.1826 647.4891 
-2171.078 182.6882 593.6498 
-2140.506 183.1647 542.0239 
-2104.508 191.1444 493.7397 
-2284.712 192.7500 805.4822 
-2248.226 149.7330 826.6588 
-2215.092 153.7526 776.6109 
-2160.570 145.5471 669.2810 
-2133.231 141.5529 615.6644 
-2106.458 136.7760 561.6991 
-2069.810 145.6543 513.8151 
-2183.085 156.2120 725.8682 
-2180.327 108.3556 796.7275 
-2149.118 109.7127 745.4941 
-2125.934 99.97239 689.3185 
-2095.155 100.7350 637.8203 
-2060.087 107.4288 588.9631 
-2030.282 106.8437 536.8647 
-2205.689 115.0838 851.5618 
-2168.241 73.39626 873.3304 
-2113.375 65.66729 766.2128 
-2082.959 65.92772 714.4907 
-2048.300 72.05658 665.3821 
-2023.695 64.28158 610.0819 
-1995.451 61.53855 557.0225 
-2135.987 76.19961 822.7409 
-2068.499 34.25394 792.5566 
-2012.437 28.17835 686.1752 
-1982.945 27.16079 633.8842 
-1960.246 16.74959 577.4098 
-2122.833 42.71761 900.0016 
-2094.741 39.76489 846.8488 
-2034.889 38.93050 742.8013 
-2057.703 -2.488721 868.3653 
-2001.020 -7.704719 762.3666 
-1975.418 -14.10210 707.6799 
-1948.617 -18.84038 653.7318 
-1912.515 -10.71710 605.5114 
-2084.186 2.690068 922.5095 
-2024.374 1.800062 818.4374 
-2303.825 241.1121 724.8710 
-2288.746 195.3655 803.1111 
-2276.145 182.9805 810.4595 
-2189.627 159.8039 722.0149 
-2212.935 120.8583 847.3178 
-2175.703 146.1194 730.1340 
-2195.333 103.5584 857.5820 
-2136.124 76.29404 822.6606 
-2158.735 67.58976 878.9230 
-2035.450 39.20502 742.4705 
-2067.308 8.662030 862.7880 
-2047.390 20.01339 804.9551 
-2034.351 38.12481 743.1114 
-1999.164 -27.38367 833.0767 
-1558.521 1153.407 1531.592 
-1526.603 1200.273 1551.286 
-1521.969 1243.028 1624.518 
-1488.845 1288.710 1644.915 
-1455.542 1334.214 1665.416 
-1458.886 1384.810 1733.995 
-1425.504 1382.929 1684.014 
-1392.354 1428.584 1704.426 
-1386.210 1469.855 1778.538 
-1357.692 1472.753 1725.721 
-1622.777 1076.469 1631.936 
-1040.274 1556.163 1906.808 
-1000.513 1517.337 1929.432 
-913.2320 1400.115 2050.930 
-1125.673 1527.335 2004.673 
-1048.924 1549.868 1911.031 
-990.4922 1588.870 1876.562 
-1088.080 1485.849 2026.531 
-1040.261 1510.175 1985.526 
-1009.679 1510.665 1933.907 
-1000.739 1471.357 2008.573 
-960.2361 1433.895 2032.223 
-995.1741 1375.709 2150.320 
-953.6859 1391.281 2105.417 
-921.3354 1394.217 2054.886 
-949.7827 1345.007 2176.981 
-913.8886 1352.843 2128.633 
-872.3918 1316.755 2152.895 
-1427.961 166.3387 1945.222 
-1400.979 218.0565 1962.038 
-1361.939 257.9239 1985.884 
-1333.567 308.2749 2003.511 
-1278.597 410.7212 2037.729 
-1195.440 563.7006 2089.465 
-1062.246 623.7888 2091.778 
-1029.400 669.5168 2112.522 
-997.1168 715.2318 2134.208 
-964.2442 760.9604 2154.907 
-931.6241 806.6832 2176.029 
-898.9010 852.4083 2196.978 
-891.3128 722.9025 2121.941 
-858.3878 768.6323 2142.552 
-825.5773 814.3595 2163.354 
-761.5184 860.8110 2131.789 
-770.8616 854.5215 2137.211 
-1162.474 609.5374 2109.770 
-1134.820 660.5938 2126.978 
-1070.410 628.2188 2095.088 
-1100.962 705.5538 2147.802 
-1037.050 673.6673 2115.623 
-1049.104 732.8236 2179.124 
-1002.967 718.4059 2136.580 
-1017.508 780.0059 2198.630 
-969.6406 763.8884 2157.095 
-986.5193 827.7857 2217.782 
-935.9901 809.0521 2177.799 
-903.1816 855.0433 2198.012 
-902.8262 729.1496 2126.608 
-869.5677 774.6985 2147.084 
-836.1619 820.1027 2167.645 
-772.9769 867.1663 2136.124 
-759.7850 869.8392 2144.033 
-1127.757 1673.380 1785.649 
-1121.067 1633.787 1863.694 
-1136.778 1593.675 1979.280 
-1220.893 1634.274 1879.458 
-1172.393 1659.543 1838.873 
-1137.619 1665.829 1789.834 
-1078.202 1706.195 1755.973 
-1126.186 1629.968 1866.036 
-1068.485 1667.961 1831.117 
-1147.123 1591.145 1992.756 
-1111.498 1598.609 1944.242 
-1069.484 1614.908 1899.663 
-1029.967 1627.755 1853.545 
-1325.813 1519.659 1745.391 
-1289.181 1561.892 1767.834 
-1283.837 1603.949 1841.479 
-1255.694 1607.216 1788.443 
-1230.761 1630.021 1873.511 
-1214.559 1645.024 1813.511 
-1126.840 1667.975 1796.297 
-1123.839 1603.173 1936.941 
-1108.570 1619.093 1876.397 
-1105.929 1585.570 1947.385 
-1063.284 1574.585 1902.805 
-1426.735 165.6735 1944.725 
-1389.622 211.5004 1958.318 
-1360.589 257.1401 1985.451 
-1297.236 303.5752 1955.069 
-1351.008 127.6803 1907.075 
-1297.401 303.4550 1955.150 
-1297.418 303.6740 1955.143 
-1265.423 350.4651 1974.881 
-1232.092 395.9426 1995.399 
-1364.810 135.2011 1912.599 
-1330.266 179.4868 1933.824 
-1296.753 224.7852 1954.448 
-1808.249 842.9888 1396.820 
-1727.563 889.8256 1337.389 
-1805.643 835.5048 1379.736 
-1793.546 852.2331 1387.186 
-1889.516 743.6647 1398.293 
-1857.062 742.6951 1347.770 
-1856.303 789.2581 1418.742 
-1824.721 789.1461 1367.710 
-1852.906 833.2277 1491.252 
-1823.682 835.4333 1438.846 
-1789.896 880.4637 1459.629 
-1759.878 881.8888 1407.686 
-1727.751 881.2409 1356.972 
-1725.621 926.4564 1428.744 
-1718.960 967.2184 1503.157 
-1692.202 971.8479 1449.312 
-1699.364 995.2681 1585.113 
-1690.328 1017.315 1520.935 
-1658.450 1016.911 1470.076 
-1628.258 1018.166 1418.234 
-1623.813 1061.106 1491.355 
-1060.382 1555.697 1940.507 
-1037.787 1601.188 1978.430 
-1001.483 1646.996 1993.378 
-972.6070 1692.632 2020.774 
-1038.754 1516.450 1993.518 
-1007.980 1562.130 2017.734 
-967.7535 1608.029 2026.108 
-943.2936 1653.563 2060.905 
-1010.312 1477.361 2035.109 
-979.0438 1523.053 2058.497 
-936.2424 1569.011 2062.556 
-911.6959 1614.547 2097.208 
-997.6527 1437.906 2103.151 
-942.9004 1484.142 2087.182 
-904.0798 1530.008 2097.913 
-877.0612 1575.601 2128.422 
-958.7822 1399.059 2127.266 
-909.7326 1445.162 2120.854 
-868.0573 1491.095 2126.801 
-841.3342 1536.681 2157.805 
-914.9689 1360.326 2143.097 
-870.2971 1406.328 2144.022 
-832.0491 1452.181 2155.713 
-799.6458 1497.899 2177.198 
-878.4749 1321.424 2171.195 
-835.4304 1367.388 2174.847 
-801.2628 1413.147 2193.376 
-763.1774 1458.996 2205.338 
-845.7349 1282.434 2205.584 
-804.2268 1328.363 2211.811 
-762.7568 1374.291 2218.101 
-724.7382 1420.139 2230.176 
-818.5304 1243.316 2249.250 
-780.7275 1289.159 2261.686 
-736.7712 1335.145 2263.810 
-700.4113 1380.954 2278.664 
-1110.121 1548.840 2014.250 
-1076.598 1553.398 1964.442 
-1069.332 1511.775 2038.077 
-979.3397 1594.422 2023.044 
-961.8484 1618.610 2033.815 
-1028.758 1474.410 2061.770 
-972.7386 1458.406 2094.977 
-980.8670 1395.494 2159.131 
-925.7613 1429.897 2122.614 
-943.5896 1353.571 2180.795 
-890.5488 1385.119 2143.006 
-902.0807 1317.500 2205.065 
-836.8565 1365.896 2174.779 
-861.9051 1279.585 2228.513 
-764.8452 1372.007 2217.833 
-821.0104 1242.665 2252.405 
-1043.812 1524.522 1983.606 
-1027.164 1586.396 1994.396 
-962.4857 1679.301 2034.274 
-959.5171 1598.147 2034.924 
-1001.766 1452.272 2077.571 
-834.3986 1366.018 2176.248 
-761.6813 1372.787 2219.732 
-715.7819 1405.912 2247.579 
224.2026 2164.820 607.9283 
-103.4117 2434.751 530.9658 
-63.51717 2396.448 554.2415 
-33.52846 2396.117 502.2564 
-3.267436 2396.164 450.4392 
27.48870 2396.895 398.9268 
58.19065 2397.551 347.3811 
88.06975 2397.069 295.3286 
-24.77971 2356.544 576.8046 
6.297630 2357.719 525.4900 
36.59277 2357.813 473.6938 
65.01128 2355.311 420.7418 
96.36691 2356.871 369.5985 
125.1574 2354.884 316.8757 
156.2305 2356.053 265.5585 
187.6076 2357.643 214.4285 
217.7348 2357.504 162.5288 
12.52478 2314.659 598.4852 
43.02116 2315.031 546.8129 
73.57767 2315.486 495.1776 
103.1193 2314.537 442.9173 
136.3734 2318.722 392.9432 
166.3230 2318.338 340.9341 
196.7318 2318.589 289.2078 
227.7280 2319.652 237.8432 
256.3549 2317.438 185.0196 
52.21137 2276.068 621.6328 
83.37190 2277.358 570.3694 
114.0866 2278.032 518.8315 
144.1096 2277.749 466.8677 
175.0370 2278.717 415.4608 
205.8834 2279.573 364.0040 
236.3247 2279.868 312.2977 
266.9523 2280.422 260.7062 
295.8227 2278.545 208.0325 
93.26125 2239.362 645.6199 
123.6341 2239.563 593.8715 
154.1161 2239.915 542.1904 
184.5342 2240.179 490.4698 
215.0031 2240.512 438.7805 
245.4467 2240.811 387.0757 
276.0302 2241.303 335.4569 
306.4411 2241.557 283.7320 
334.0961 2238.000 230.3098 
132.6550 2200.366 668.5873 
162.9789 2200.500 616.8087 
193.2621 2200.576 565.0051 
223.9144 2201.164 513.4287 
254.5922 2201.787 461.8681 
284.6609 2201.567 409.9323 
315.5999 2202.551 358.5325 
345.9122 2202.668 306.7469 
374.4189 2200.288 253.8492 
234.5483 2164.198 589.1378 
265.0486 2164.575 537.4678 
295.4469 2164.811 485.7350 
324.2257 2162.808 433.0050 
354.8351 2163.336 381.4022 
385.3178 2163.688 329.7214 
414.4616 2162.190 277.2162 
175.0327 2165.497 693.3922 
205.4563 2165.768 641.6750 
209.0256 2119.032 713.0334 
238.7835 2118.383 660.9062 
269.1492 2118.574 609.1534 
300.1566 2119.652 557.7958 
330.6839 2120.067 506.1425 
360.7250 2119.809 454.1897 
391.9644 2121.208 402.9749 
422.6212 2121.802 351.4014 
454.0562 2123.471 300.3071 
155.6291 2181.406 682.0338 
190.3283 2178.230 632.8203 
182.9477 2154.557 697.9637 
211.1999 2157.717 644.9908 
-2195.974 1101.803 1091.706 
-2163.115 1147.532 1112.427 
-2130.399 1193.257 1133.389 
-2097.382 1238.989 1153.846 
-2064.058 1284.728 1173.789 
-2029.413 1330.498 1191.516 
-1995.572 1376.249 1210.591 
-1963.039 1421.969 1231.861 
-1929.848 1467.705 1252.025 
-2165.758 1062.755 1130.325 
-2130.600 1108.537 1147.194 
-2097.332 1154.275 1167.230 
-2064.323 1200.007 1187.700 
-2030.955 1245.747 1207.568 
-1997.321 1291.493 1226.992 
-1962.338 1337.271 1244.152 
-1929.427 1383.000 1264.787 
-1896.055 1428.740 1284.649 
-2132.428 1023.780 1163.726 
-2099.097 1069.519 1183.656 
-2063.695 1115.306 1200.115 
-2030.380 1161.045 1220.072 
-1997.785 1206.767 1241.237 
-1963.506 1252.529 1259.578 
-1928.158 1298.315 1276.128 
-1894.836 1344.054 1296.074 
-1861.936 1389.783 1316.726 
-2098.018 984.8289 1195.316 
-2064.938 1030.562 1215.666 
-2029.571 1076.349 1232.185 
-1996.167 1122.090 1251.994 
-1961.200 1167.867 1269.182 
-1928.315 1213.596 1289.859 
-1895.544 1259.322 1310.728 
-1860.233 1305.107 1327.341 
-1827.217 1350.839 1347.799 
-2063.597 945.8784 1226.887 
-2030.189 991.6194 1246.689 
-1995.916 1037.381 1265.040 
-1960.328 1083.172 1281.188 
-1927.358 1128.903 1301.723 
-1894.578 1174.630 1322.577 
-1861.526 1220.362 1342.975 
-1826.348 1266.144 1359.811 
-1793.914 1311.863 1381.244 
-2030.716 906.8923 1261.040 
-1995.919 952.6656 1278.513 
-1962.363 998.4100 1298.067 
-1929.303 1044.143 1318.451 
-1893.890 1089.931 1334.893 
-1861.695 1135.643 1356.727 
-1828.639 1181.376 1377.119 
-1795.090 1227.121 1396.683 
-1759.008 1272.924 1412.003 
-1767.300 1262.420 1408.520 
-2062.670 944.7678 1227.877 
-2026.694 987.6462 1249.937 
-1985.930 1025.818 1274.789 
-1945.721 1064.536 1299.317 
-1904.314 1102.077 1324.544 
-1875.456 1151.951 1342.454 
-1842.494 1197.791 1362.756 
-1804.084 1238.277 1386.236 
-787.1803 1204.295 2285.968 
-748.7415 1250.152 2297.338 
-709.6910 1296.024 2307.684 
-666.1384 1342.000 2310.484 
-796.5215 1119.363 2315.090 
-748.5423 1165.442 2310.472 
-713.5558 1211.220 2327.628 
-672.2830 1257.143 2334.250 
-631.1549 1303.063 2341.113 
-865.3192 898.1534 2216.488 
-836.6578 943.7844 2244.244 
-798.8100 989.6284 2256.605 
-765.8486 1035.359 2277.155 
-732.6214 1081.096 2297.259 
-695.4246 1126.925 2310.711 
-658.7696 1172.741 2325.071 
-631.3205 1218.344 2354.859 
-598.2291 1264.078 2375.190 
-803.8507 859.8298 2202.732 
-769.1909 905.5999 2220.436 
-739.9280 951.2448 2247.183 
-709.7756 996.9105 2272.441 
-678.1599 1042.610 2295.246 
-646.6813 1088.306 2318.281 
-610.4662 1134.112 2333.378 
-574.1934 1179.920 2348.378 
-541.0482 1225.655 2368.620 
-773.9454 820.7746 2241.872 
-741.3483 866.4969 2263.032 
-708.0537 912.2353 2283.023 
-677.0582 957.9204 2306.868 
-641.0366 1003.722 2322.289 
-606.9777 1049.478 2341.000 
-571.5989 1095.265 2357.498 
-538.1587 1141.007 2377.245 
-503.4080 1186.779 2394.797 
-740.6891 781.7971 2275.395 
-709.3920 827.4893 2298.734 
-674.7979 873.2578 2316.548 
-645.1321 918.9121 2342.620 
-610.3267 964.6855 2360.080 
-579.3192 1010.371 2383.904 
-544.2018 1056.152 2400.841 
-510.8971 1101.890 2420.815 
-476.0928 1147.664 2438.277 
-706.6454 742.8379 2307.599 
-675.9668 788.5157 2331.975 
-642.9573 834.2475 2352.444 
-611.8461 879.9353 2376.094 
-581.1926 925.6125 2400.512 
-548.0453 971.3475 2420.750 
-515.0958 1017.078 2441.320 
-481.8922 1062.814 2461.464 
-441.4602 1108.718 2469.494 
-663.3715 704.0926 2324.335 
-632.8091 749.7676 2348.905 
-600.2455 795.4891 2370.121 
-563.7051 841.3028 2384.673 
-531.5186 887.0155 2406.521 
-501.6926 932.6736 2432.326 
-468.2569 978.4152 2452.081 
-430.2322 1024.263 2464.145 
-406.1313 1069.789 2499.544 
-817.0751 1196.436 2323.989 
-742.0112 1258.439 2299.763 
-811.5710 1110.574 2326.086 
-688.4346 1239.056 2331.464 
-846.8458 926.5195 2232.617 
-824.0637 958.0244 2246.646 
-638.8356 840.2816 2355.545 
-460.3373 1087.124 2465.471 
-407.5082 1066.707 2496.712 
-808.6770 1231.577 2259.611 
-752.0845 1254.193 2293.693 
-809.3224 1123.049 2327.600 
-920.5699 919.4413 2258.402 
-870.1126 900.7784 2218.377 
-889.8858 967.5204 2277.376 
-846.6242 1003.238 2303.685 
-804.0670 992.3395 2259.053 
-813.6898 1049.106 2323.972 
-768.6570 1035.774 2280.784 
-739.1399 1085.000 2299.077 
-719.8990 1144.325 2311.379 
-697.3696 1200.419 2325.598 
-830.8608 940.4373 2242.347 
-620.5181 890.1824 2367.166 
-591.4966 939.8954 2385.171 
-562.6280 989.7587 2403.086 
-525.4689 1031.474 2425.836 
-493.1374 1077.934 2445.771 
-602.8425 872.8107 2377.473 
-563.3522 912.2349 2401.582 
-521.5795 949.4161 2427.022 
-489.9578 996.5737 2446.543 
-466.8984 1052.146 2461.072 
-412.2187 1076.642 2494.039 
-941.4949 1738.320 2044.423 
-907.6138 1784.072 2063.432 
-878.7481 1829.707 2090.845 
-838.9044 1875.598 2099.861 
-810.7137 1921.218 2128.406 
-778.2680 1966.937 2149.820 
-736.7101 2012.866 2155.963 
-710.6894 2058.436 2188.145 
-908.0895 1699.346 2077.697 
-874.9950 1745.079 2098.023 
-837.8988 1790.906 2111.644 
-811.9495 1836.474 2143.945 
-779.0327 1882.204 2164.570 
-744.9288 1927.961 2183.205 
-704.8001 1973.858 2191.743 
-676.2008 2019.487 2219.603 
-873.2355 1660.405 2108.543 
-839.6212 1706.151 2127.998 
-805.2137 1751.915 2146.125 
-779.5720 1797.476 2178.941 
-736.4680 1843.442 2182.494 
-703.7034 1889.168 2203.373 
-670.6672 1934.901 2223.798 
-641.8352 1980.536 2251.268 
-839.9353 1621.429 2141.993 
-803.8422 1667.232 2157.294 
-769.8533 1712.986 2176.122 
-736.3851 1758.729 2195.823 
-709.5288 1804.318 2226.604 
-670.1049 1850.199 2236.323 
-637.7896 1895.914 2257.956 
-607.3907 1941.586 2282.800 
-804.7608 1582.496 2172.302 
-769.9132 1628.270 2189.691 
-736.8531 1674.003 2210.075 
-706.5228 1719.673 2235.034 
-671.5366 1765.450 2252.191 
-637.5797 1811.204 2271.072 
-604.3654 1856.941 2291.198 
-572.2367 1902.652 2313.143 
-770.4837 1543.542 2204.115 
-734.9600 1589.332 2220.370 
-702.0392 1635.062 2240.988 
-671.0920 1680.746 2264.914 
-638.8778 1726.459 2286.716 
-606.8065 1772.169 2308.757 
-572.7614 1817.925 2327.491 
-538.4330 1863.687 2345.750 
-734.6516 1504.624 2233.322 
-702.5901 1550.334 2255.380 
-673.4445 1595.976 2282.324 
-639.3866 1641.732 2301.036 
-605.7490 1687.479 2320.453 
-574.5104 1733.169 2343.890 
-539.9171 1778.938 2361.705 
-503.9850 1824.737 2377.276 
-697.8425 1465.729 2260.891 
-671.5754 1511.304 2292.660 
-639.5206 1557.014 2314.729 
-604.1080 1602.802 2331.171 
-572.8586 1648.493 2354.590 
-541.1752 1694.194 2377.281 
-506.2274 1739.970 2394.502 
-471.0720 1785.752 2411.375 
-666.3867 1426.710 2297.432 
-632.2346 1472.468 2315.987 
-599.8882 1518.184 2337.567 
-566.3248 1563.929 2357.108 
-527.4061 1609.798 2367.674 
-494.9371 1655.517 2389.049 
-467.3205 1701.124 2418.556 
-428.6493 1746.987 2429.537 
-894.3958 1805.363 2076.648 
-866.7744 1843.560 2093.658 
-811.1573 1920.472 2127.909 
-775.1888 1970.212 2150.060 
-705.8203 1972.667 2191.486 
-703.7781 1975.491 2192.744 
-695.9130 1560.805 2261.577 
-517.9202 1806.948 2371.191 
-701.1852 1460.041 2257.037 
-934.1755 1729.713 2051.865 
-897.9426 1772.339 2074.075 
-826.6418 1858.735 2117.815 
-707.2072 2054.296 2191.788 
-703.6793 1972.593 2192.763 
-682.0217 1607.439 2270.511 
-648.1064 1652.343 2291.370 
-612.8457 1695.924 2313.013 
-591.0752 1752.763 2326.789 
-548.9344 1789.583 2352.444 
-708.9127 1477.397 2252.666 
-698.9343 1545.825 2259.567 
-497.4789 1817.247 2383.531 
-1132.621 532.2241 2058.141 
-1103.015 577.8771 2084.314 
-1075.054 623.4919 2113.243 
-1031.589 669.4661 2116.190 
-998.5104 715.1995 2136.544 
-970.6541 760.8118 2165.649 
-939.1644 806.5084 2188.665 
-898.0479 852.4281 2195.548 
-1075.763 493.7937 2052.111 
-1046.003 539.4502 2078.026 
-1005.754 585.3498 2086.363 
-968.3950 631.1824 2099.542 
-938.2246 676.8484 2124.770 
-900.1953 722.6965 2136.827 
-863.5854 768.5118 2151.262 
-829.9469 814.2582 2170.677 
-1041.947 454.8292 2084.696 
-1007.170 500.6020 2102.204 
-969.9180 546.4321 2115.563 
-935.4251 592.1983 2133.546 
-903.2570 637.9106 2155.426 
-865.7021 683.7477 2168.277 
-834.9784 729.4266 2192.577 
-799.9230 775.2058 2209.618 
-1006.815 415.8951 2115.077 
-973.1881 461.6413 2134.511 
-938.7424 507.4063 2152.573 
-900.4658 553.2603 2164.216 
-868.4717 598.9685 2186.387 
-832.5612 644.7676 2201.994 
-801.2575 690.4598 2225.322 
-769.8390 736.1548 2248.458 
-971.2454 376.9713 2144.723 
-937.4540 422.7212 2163.882 
-905.4077 468.4307 2185.966 
-868.2219 514.2593 2199.436 
-835.2643 559.9899 2219.992 
-798.1755 605.8162 2233.625 
-765.6329 651.5372 2254.877 
-733.6672 697.2449 2277.095 
-942.4241 337.8910 2185.680 
-907.8303 383.6595 2203.494 
-877.1323 429.3378 2227.837 
-840.2712 475.1588 2241.851 
-804.0209 520.9657 2256.889 
-770.7923 566.7026 2276.991 
-738.1292 612.4265 2298.041 
-705.8298 658.1418 2319.700 
-663.3715 704.0926 2324.335 
-1043.065 655.1718 2111.778 
-984.0651 736.7614 2148.112 
-919.6051 825.9019 2187.809 
-850.5159 786.1703 2158.611 
-828.1962 817.0359 2172.356 
-692.5616 672.5120 2321.166 
-1175.933 544.5289 2100.840 
-1147.187 594.5125 2118.684 
-1112.716 638.8707 2139.866 
-1077.137 682.1384 2161.696 
-1035.259 671.9074 2116.668 
-1047.986 731.7247 2179.775 
-1001.945 717.4016 2137.176 
-1015.281 777.8170 2199.929 
-984.2045 825.5106 2219.132 
-950.2474 870.3729 2240.015 
-905.5168 857.3383 2196.650 
-1130.424 530.7294 2057.929 
-1090.573 569.7988 2082.250 
-1052.115 610.2378 2105.757 
-959.4455 753.8687 2163.040 
-925.1835 798.4313 2184.100 
-830.3545 814.3951 2171.031 
-828.7848 812.8524 2171.947 
-964.2825 367.4449 2154.809 
-926.5000 408.5476 2177.923 
-899.4848 460.2325 2194.758 
-852.3954 492.1882 2223.298 
-810.8850 529.6272 2248.585 
-774.4642 572.0681 2270.905 
-742.7100 619.0955 2290.503 
-713.0062 668.1379 2308.906 
454.0562 2123.472 300.3070 
247.4738 2078.729 735.4183 
278.1592 2079.362 683.8624 
308.9847 2080.189 632.3928 
339.6310 2080.768 580.8127 
369.8761 2080.792 528.9856 
400.5086 2081.352 477.3971 
431.8423 2082.882 426.2403 
462.1463 2082.988 374.4495 
493.8245 2084.994 323.5049 
286.4885 2039.208 758.1522 
318.1893 2041.246 707.2215 
348.3191 2041.111 655.3234 
379.2956 2042.146 603.9468 
409.3473 2041.903 552.0005 
440.5652 2043.273 500.7725 
471.9423 2044.862 449.6425 
501.8776 2044.458 397.6246 
531.6393 2043.814 345.4998 
326.9574 2001.699 781.7815 
357.4648 2002.086 730.1160 
388.4799 2003.175 678.7631 
418.7943 2003.296 626.9787 
449.4274 2003.856 575.3905 
480.4855 2005.005 524.0640 
511.2745 2005.781 472.5719 
541.2049 2005.371 420.5510 
571.1132 2004.929 368.5165 
366.1110 1962.371 804.6009 
397.2307 1963.605 753.3124 
427.5932 1963.792 701.5577 
458.4523 1964.665 650.1086 
489.5340 1965.846 598.7968 
519.8066 1965.909 546.9866 
550.7518 1966.901 495.5906 
580.6467 1966.441 443.5479 
611.0930 1966.744 391.8447 
405.9569 1924.001 827.8466 
436.4561 1924.376 776.1760 
467.6574 1925.723 724.9378 
498.0044 1925.888 673.1735 
528.8591 1926.755 621.7217 
559.2629 1926.999 569.9924 
590.1219 1927.873 518.5433 
620.3054 1927.812 466.6783 
650.5818 1927.879 414.8705 
445.1530 1884.731 850.6921 
476.3891 1886.126 799.4753 
506.8326 1886.425 747.7705 
537.4194 1886.922 696.1537 
567.9307 1887.314 644.4906 
598.1840 1887.350 592.6686 
629.0795 1888.273 541.2419 
660.3806 1889.758 490.0652 
485.0778 1846.470 873.9865 
515.5164 1846.762 822.2784 
546.1362 1847.304 770.6822 
576.8674 1848.001 719.1544 
607.5049 1848.568 667.5690 
637.9858 1848.918 615.8871 
669.3261 1850.457 564.7344 
700.1014 1851.214 513.2338 
524.2309 1807.141 896.8055 
554.8470 1807.678 845.2068 
585.6756 1808.510 793.7392 
616.3055 1809.066 742.1490 
646.8411 1809.492 690.5008 
677.9091 1810.654 639.1804 
708.9197 1811.737 587.8248 
740.0956 1813.049 536.5709 
-1499.235 1638.678 1582.969 
-1466.925 1684.394 1604.610 
-1435.004 1730.101 1626.902 
-1402.039 1775.831 1647.446 
-1370.260 1821.535 1669.979 
-1336.138 1867.292 1688.583 
-1304.164 1913.000 1710.788 
-1269.184 1958.778 1727.955 
-1234.479 2004.549 1745.583 
-1471.103 1599.582 1625.080 
-1436.495 1645.351 1642.870 
-1405.310 1691.041 1666.396 
-1368.237 1736.866 1680.055 
-1335.528 1782.591 1701.029 
-1302.117 1828.332 1720.825 
-1268.862 1874.070 1740.883 
-1236.138 1919.795 1761.831 
-1200.435 1965.589 1777.786 
-1437.051 1560.623 1657.269 
-1404.087 1606.354 1677.816 
-1369.428 1652.124 1695.520 
-1332.210 1697.953 1708.937 
-1301.060 1743.642 1732.521 
-1266.975 1789.399 1751.189 
-1234.566 1835.117 1772.664 
-1202.306 1880.831 1794.390 
-1167.272 1926.610 1811.466 
-1401.180 1521.706 1686.412 
-1365.008 1567.511 1701.581 
-1333.300 1613.213 1724.231 
-1305.250 1658.830 1753.011 
-1271.208 1704.586 1771.751 
-1239.104 1750.296 1793.738 
-1199.952 1796.171 1803.912 
-1167.457 1841.890 1825.245 
-1132.162 1887.675 1841.884 
-1375.966 1482.542 1733.412 
-1334.817 1528.463 1740.241 
-1301.682 1574.198 1760.500 
-1265.713 1619.998 1776.009 
-1246.536 1665.409 1819.660 
-1206.669 1711.300 1828.638 
-1165.624 1757.218 1835.640 
-1138.071 1802.823 1865.254 
-1098.337 1848.711 1874.453 
-1175.424 1672.276 1865.531 
-1129.859 1718.299 1864.959 
-1104.365 1763.856 1898.023 
-1062.987 1809.782 1904.468 
-1139.664 1633.356 1894.860 
-1097.596 1679.298 1900.148 
-1069.224 1724.922 1928.388 
-1030.865 1770.778 1939.892 
-1102.300 1594.474 1921.499 
-1069.813 1640.194 1942.845 
-1039.969 1685.852 1968.618 
-999.8192 1731.749 1977.121 
-1314.930 1555.904 1752.387 
-1259.101 1633.109 1786.768 
-1186.311 1733.769 1831.595 
-1147.006 1788.123 1855.800 
-1127.801 1814.681 1867.627 
-1199.866 1663.351 1892.407 
-1130.012 1718.151 1864.973 
-1129.715 1718.561 1865.156 
-1066.849 1805.497 1903.870 
-1156.444 1629.926 1917.855 
-1149.286 1588.153 1991.424 
-1116.247 1592.041 1941.317 
-1390.203 1504.705 1706.763 
-1334.923 1528.612 1740.079 
-1264.576 1694.181 1784.345 
-1226.245 1734.744 1807.779 
-1143.399 1809.794 1858.252 
-1394.984 1478.477 1773.422 
-1361.542 1523.846 1794.004 
-1328.267 1569.379 1814.490 
-1301.694 1574.189 1760.538 
-1290.666 1610.660 1837.497 
-1267.307 1618.629 1781.671 
-1260.352 1659.103 1856.256 
-1129.561 1717.958 1865.239 
-1059.025 1805.107 1908.534 
-1895.515 1513.468 1270.275 
-1862.800 1559.193 1291.239 
-1830.290 1604.913 1312.545 
-1798.214 1650.623 1334.579 
-1766.092 1696.335 1356.535 
-1734.029 1742.044 1378.590 
-1698.922 1787.825 1395.545 
-1667.045 1833.530 1417.913 
-1861.175 1474.516 1301.984 
-1829.252 1520.222 1324.273 
-1797.528 1565.924 1346.897 
-1765.372 1611.636 1368.797 
-1732.358 1657.368 1389.258 
-1699.549 1703.095 1410.064 
-1665.618 1748.849 1428.989 
-1634.114 1794.545 1451.981 
-1829.408 1435.504 1338.003 
-1794.783 1481.273 1355.765 
-1763.992 1526.953 1379.953 
-1732.934 1572.640 1403.692 
-1698.070 1618.415 1421.053 
-1666.229 1664.119 1443.481 
-1632.399 1709.870 1462.574 
-1599.167 1755.607 1482.672 
-1794.707 1396.560 1369.105 
-1760.043 1442.330 1386.802 
-1731.987 1487.947 1415.573 
-1697.474 1533.713 1433.521 
-1663.905 1579.458 1453.053 
-1630.195 1625.206 1472.349 
-1597.264 1670.936 1492.949 
-1563.909 1716.676 1512.840 
-1760.828 1357.597 1401.585 
-1732.413 1403.222 1429.755 
-1696.887 1449.012 1446.006 
-1663.570 1494.751 1465.961 
-1629.426 1540.509 1484.528 
-1598.109 1586.202 1507.834 
-1565.043 1631.935 1528.208 
-1530.425 1677.704 1545.983 
-1729.298 1318.579 1438.002 
-1696.816 1364.299 1459.355 
-1663.209 1410.044 1478.824 
-1630.587 1455.767 1499.943 
-1598.457 1501.478 1521.885 
-1564.921 1547.223 1541.471 
-1532.714 1592.936 1563.286 
-1752.638 1282.696 1417.549 
-1739.623 1331.395 1425.989 
-1726.562 1396.794 1434.687 
-1678.859 1428.147 1463.585 
-1646.277 1474.361 1483.666 
-1613.069 1519.959 1504.112 
-1584.968 1570.577 1521.581 
-1553.363 1617.752 1541.092 
-1513.674 1656.980 1565.317 
-1994.957 867.9728 1290.370 
-1961.680 913.7108 1310.391 
-1928.002 959.4581 1329.739 
-1894.496 1005.201 1349.376 
-1859.651 1050.976 1366.769 
-1826.585 1096.709 1387.144 
-1793.687 1142.438 1407.799 
-1761.016 1188.162 1428.836 
-1724.765 1233.969 1443.873 
-1961.703 828.9952 1323.897 
-1926.899 874.7687 1341.359 
-1894.053 920.4967 1362.102 
-1861.337 966.2217 1383.063 
-1827.184 1011.980 1401.616 
-1792.767 1057.745 1419.726 
-1758.469 1103.506 1438.036 
-1726.056 1149.224 1459.505 
-1693.922 1194.936 1481.441 
-1931.981 789.9359 1363.343 
-1903.982 835.5515 1392.209 
-1865.980 881.3990 1404.312 
-1836.445 927.0504 1430.604 
-1803.842 972.7727 1451.755 
-1762.790 1018.691 1458.746 
-1728.841 1064.444 1477.641 
-1700.156 1110.076 1505.357 
-1663.507 1155.892 1519.726 
-1916.584 750.5444 1426.796 
-1877.980 796.4059 1437.891 
-1838.686 842.2834 1447.828 
-1796.060 888.2381 1452.181 
-1769.206 933.8272 1482.966 
-1741.212 979.4427 1511.841 
-1705.488 1025.238 1527.760 
-1675.396 1070.902 1553.118 
-1636.927 1116.760 1564.438 
-1907.626 829.7481 1388.677 
-1898.934 841.7678 1394.030 
-1805.140 878.0009 1450.499 
-1785.807 904.7367 1462.405 
-1754.407 1267.690 1416.286 
-1904.825 836.9456 1390.448 
-1927.592 781.0850 1376.091 
-1857.610 868.7775 1419.062 
-1801.151 969.7612 1454.148 
-1750.529 998.2451 1484.749 
-1713.607 1040.193 1507.361 
-1683.875 1089.209 1525.779 
-1641.210 1125.513 1551.740 
-1924.877 747.4904 1447.121 
-1890.724 792.1602 1468.118 
-1854.229 834.5280 1490.481 
-1819.900 879.0250 1511.581 
-1796.553 887.0063 1455.747 
-1776.649 914.7531 1537.883 
-1750.935 967.7175 1553.959 
-1723.988 1019.469 1570.755 
-1694.944 1069.160 1588.772 
-1660.662 1113.703 1609.845 
-160.1178 1798.177 2055.304 
-24.35146 1801.324 1827.779 
-23.67365 1801.340 1826.643 
-137.5415 1758.953 2106.726 
-48.16763 1761.024 1956.948 
-35.92944 1761.308 1936.439 
9.297279 1762.356 1860.645 
19.44904 1762.591 1843.632 
-114.4139 1719.740 2157.224 
50.17214 1723.555 1881.401 
62.97754 1723.852 1859.941 
-83.53000 1680.708 2194.723 
24.58319 1603.717 2192.054 
92.21675 1605.285 2078.709 
49.30277 1564.542 2239.884 
63.60125 1564.873 2215.922 
157.5793 1567.051 2058.427 
186.9963 1527.985 2098.385 
117.3960 1486.623 2304.282 
210.3560 1488.778 2148.494 
343.1777 1491.856 1925.904 
-216.2260 1786.403 2131.680 
-182.2765 1791.550 2082.135 
-24.09305 1801.293 1827.284 
-141.7448 1805.799 2036.642 
-107.3091 1811.619 1987.396 
-82.85743 1803.631 1932.001 
-51.51391 1805.175 1880.851 
9.120135 1805.422 1777.285 
37.93591 1803.470 1724.578 
-173.7665 1751.647 2156.536 
-138.4412 1758.696 2107.837 
-46.46080 1760.491 1953.123 
15.21600 1762.181 1850.199 
-100.1025 1769.913 2060.994 
-70.51830 1769.023 2008.760 
-14.20290 1763.299 1902.535 
48.01144 1765.732 1799.943 
77.17606 1764.262 1747.450 
-137.3213 1708.573 2177.687 
54.30246 1722.760 1872.977 
-89.98240 1732.236 2136.387 
-61.44653 1729.897 2083.507 
-29.09214 1732.838 2032.979 
-2.563198 1727.723 1978.864 
27.83461 1727.959 1927.130 
87.68748 1727.126 1823.084 
116.8467 1725.649 1770.588 
-91.75568 1678.112 2204.455 
-53.64039 1689.020 2157.475 
-16.46027 1698.635 2109.919 
11.47807 1695.469 2056.671 
46.87061 1702.612 2008.014 
74.83768 1699.486 1954.784 
97.87935 1689.548 1898.521 
133.0729 1696.416 1849.741 
161.5756 1694.031 1796.841 
-45.22124 1648.991 2231.820 
-12.93346 1651.840 2181.251 
11.56617 1643.919 2125.885 
52.77688 1659.108 2080.812 
85.96908 1663.207 2030.799 
114.6996 1661.137 1978.039 
138.8244 1652.698 1922.443 
172.7782 1657.851 1872.900 
202.9709 1657.803 1821.041 
48.57017 1601.618 2147.381 
75.84159 1597.531 2093.723 
-7.465347 1607.730 2253.779 
20.13071 1604.091 2200.320 
121.6031 1619.012 2051.451 
149.8286 1616.244 1998.380 
177.7150 1613.006 1945.101 
207.4944 1612.386 1892.987 
239.3450 1614.631 1842.148 
25.86674 1560.352 2273.013 
85.29758 1558.935 2168.706 
114.8062 1557.941 2116.426 
149.4381 1564.032 2067.300 
60.38847 1566.290 2223.820 
190.0167 1578.346 2021.837 
218.3487 1575.725 1968.831 
248.2167 1575.228 1916.772 
279.5707 1576.785 1865.628 
55.08315 1507.281 2289.713 
86.95586 1509.557 2238.888 
127.7621 1524.186 2193.565 
158.2216 1524.507 2141.870 
191.5087 1528.738 2091.916 
225.5365 1533.993 2042.418 
255.7849 1534.022 1990.593 
289.0250 1538.188 1940.611 
314.4858 1531.596 1885.837 
130.7961 1476.710 2264.594 
162.2473 1478.402 2213.509 
198.0747 1486.146 2165.120 
351.1723 1488.856 1907.137 
111.9342 1492.427 2323.431 
234.2908 1494.427 2116.970 
263.4025 1492.884 2064.445 
293.3958 1492.560 2012.463 
327.4699 1497.880 1962.993 
-52.58052 1767.502 1949.568 
-137.4867 1758.168 2108.400 
-41.53717 1756.648 1956.007 
62.42998 1716.322 1877.738 
-80.67977 1671.411 2210.972 
17.97539 1636.306 2129.604 
69.37308 1616.718 2090.128 
14.36698 1577.999 2266.395 
145.2272 1573.095 2064.913 
61.80828 1562.300 2224.612 
185.0346 1533.972 2088.125 
97.15018 1496.639 2314.667 
320.3480 1524.693 1889.240 
-1404.041 2199.360 1583.463 
-1369.738 2245.122 1601.764 
-1337.826 2290.828 1624.073 
-1304.581 2336.565 1644.146 
-1271.088 2382.309 1663.805 
-1237.530 2428.053 1683.356 
-1204.690 2473.781 1704.109 
-1171.937 2519.507 1725.008 
-1140.107 2565.211 1747.453 
-1370.134 2160.398 1615.895 
-1336.863 2206.135 1635.927 
-1304.484 2251.853 1657.451 
-1271.734 2297.579 1678.357 
-1239.091 2343.302 1699.440 
-1205.245 2389.053 1718.506 
-1171.827 2434.794 1738.291 
-1139.585 2480.508 1760.047 
-1108.939 2526.185 1784.477 
-1336.608 2121.427 1648.968 
-1303.573 2167.159 1669.394 
-1269.998 2212.904 1688.915 
-1237.616 2258.621 1710.435 
-1204.961 2304.344 1731.499 
-1172.245 2350.070 1752.460 
-1138.868 2395.810 1772.313 
-1106.048 2441.537 1793.100 
-1073.847 2487.250 1814.924 
-1299.306 2082.543 1675.710 
-1267.602 2128.244 1698.367 
-1233.948 2173.991 1717.757 
-1201.598 2219.708 1739.331 
-1168.743 2265.436 1760.059 
-1134.902 2311.187 1779.135 
-1102.398 2356.907 1800.452 
-1070.142 2402.621 1822.184 
-1038.087 2448.331 1844.253 
-1266.394 2043.557 1709.811 
-1233.347 2089.290 1730.217 
-1198.273 2135.070 1747.227 
-1166.098 2180.782 1769.095 
-1133.965 2226.494 1791.032 
-1101.328 2272.217 1812.125 
-1067.575 2317.966 1831.350 
-1034.360 2363.702 1851.474 
-1005.588 2409.336 1879.045 
-1200.381 2050.306 1764.228 
-1165.840 2096.073 1782.130 
-1133.570 2141.788 1803.839 
-1099.483 2187.544 1822.502 
-1067.640 2233.249 1844.927 
-1032.620 2279.028 1862.027 
-1000.660 2324.735 1884.254 
-972.4414 2370.356 1912.752 
-1006.017 2408.657 1878.636 
-1005.842 2409.649 1878.754 
-1251.383 2025.084 1726.919 
-1214.226 2066.802 1749.668 
-1171.819 2103.359 1775.478 
-1144.471 2154.716 1792.508 
-1107.718 2196.832 1815.021 
-1082.570 2250.351 1830.767 
-1035.985 2282.802 1859.013 
-1008.944 2334.462 1875.864 
864.7546 1503.945 1051.813 
887.7861 1504.479 1013.216 
563.6960 1768.244 919.8167 
594.3864 1768.884 868.2639 
625.0570 1769.496 816.6988 
655.7039 1770.076 765.1191 
686.4449 1770.787 713.5975 
717.8795 1772.456 662.5029 
