ply
format ascii 1.0
comment FreeCAD generated
element vertex 1553
property float x
property float y
property float z
end_header
-142.9252 -1071.183 -2871.198 
-180.2188 -960.4061 -2907.083 
-93.14874 -983.3040 -2893.627 
-59.56465 -961.3675 -2805.240 
-14.94566 -898.8466 -2835.633 
8.675929 -787.9542 -2767.752 
47.48152 -762.4581 -2793.147 
-233.9503 -1148.607 -2924.252 
-230.3283 -1050.981 -2928.979 
-179.4533 -937.7626 -2911.394 
-109.5179 -838.9103 -2797.583 
-15.79252 -800.5022 -2766.804 
-2.803817 -718.3834 -2831.328 
-13.93318 -704.5844 -2821.206 
-1308.268 -723.3426 -2701.689 
-1435.830 -637.2206 -2548.505 
-1278.159 -626.4909 -2713.597 
-1253.558 -607.7939 -2673.071 
-1276.856 -596.9042 -2562.089 
-1446.229 -769.3775 -2875.387 
-1489.008 -701.7922 -2648.851 
-1429.499 -680.9120 -2744.927 
-1351.099 -673.7477 -2759.382 
-1297.524 -639.8262 -2781.780 
-1257.772 -511.3204 -2779.972 
-1472.458 -643.7004 -2898.021 
-1400.205 -678.7854 -2844.008 
-1361.179 -570.0866 -2830.632 
-1309.263 -521.8853 -2851.222 
-1324.343 -554.0560 -2835.333 
-1436.042 -651.7147 -2915.500 
-1429.965 -655.0517 -2939.167 
-1372.895 -570.9683 -2925.096 
-1345.109 -541.7053 -2839.102 
-1299.001 -503.8393 -2817.669 
-1528.560 -609.0696 -2931.148 
-1484.101 -548.8725 -2946.100 
-1432.895 -476.3552 -2889.567 
-1417.211 -467.9172 -2890.725 
-1325.780 -410.5129 -2886.525 
-1475.442 -595.3496 -3066.649 
-1447.646 -488.4678 -3050.520 
-1489.717 -464.1619 -2991.673 
-1391.872 -480.6884 -2959.063 
-1439.718 -419.9576 -2880.474 
-1255.089 -866.4824 -2908.816 
-1335.705 -867.8901 -2851.548 
-1313.081 -794.9770 -2777.716 
-1423.658 -825.4413 -2737.797 
-1422.333 -844.7448 -2706.862 
-1389.181 -879.3699 -2620.947 
-1475.441 -867.8187 -2660.852 
-1282.113 -799.9921 -2934.525 
-1343.404 -827.8912 -2850.461 
-1366.409 -833.0026 -2831.379 
-1437.025 -838.0420 -2839.784 
-1434.197 -837.1231 -2758.182 
-1482.349 -771.0303 -2635.292 
-1535.068 -804.4241 -2628.647 
-1354.469 -737.9357 -2675.645 
-1436.115 -707.4003 -2588.663 
-1458.914 -736.0197 -2538.917 
-1287.922 -613.0106 -2675.328 
-1371.156 -596.2219 -2622.890 
-1334.213 -608.7106 -2541.164 
-1285.269 -541.3297 -2643.095 
-1241.145 -611.2323 -2594.651 
-1363.508 -710.9751 -2955.049 
-1380.156 -803.3602 -2921.609 
-1385.194 -759.0819 -2865.687 
-1316.551 -621.5010 -2838.220 
-1312.885 -582.0214 -2809.321 
-1367.573 -705.6095 -3024.796 
-1419.859 -710.2021 -2931.310 
-1444.568 -646.3816 -3029.984 
-1471.463 -633.0961 -2936.215 
-1387.873 -509.2044 -2852.181 
-1309.049 -471.7732 -2855.365 
-1526.028 -617.8737 -2997.722 
-1469.159 -584.0241 -2978.143 
-1413.455 -506.2956 -2965.497 
-1346.795 -441.6089 -2852.325 
-1512.646 -599.6866 -3041.194 
-1492.976 -542.9423 -2984.445 
-1454.349 -491.9743 -3059.824 
-1318.680 -645.0085 -2677.204 
-1375.809 -682.3398 -2674.023 
-1440.801 -674.8718 -2601.711 
-1313.373 -642.7944 -2670.227 
-1321.681 -682.0998 -2611.044 
-1389.514 -681.1831 -2564.137 
-1380.603 -652.3610 -2594.948 
-1274.166 -597.3998 -2693.328 
-1327.543 -628.6303 -2625.513 
-1373.879 -782.8254 -2773.400 
-1483.748 -756.9304 -2768.923 
-1464.773 -766.0788 -2695.437 
-1497.855 -753.5308 -2665.565 
-1336.093 -683.1066 -2795.332 
-1457.114 -668.4547 -2741.325 
-1473.464 -714.0388 -2687.789 
-1497.723 -682.9036 -2613.619 
-1304.229 -689.0586 -2712.607 
-1264.744 -647.7667 -2736.951 
-1260.858 -506.6555 -2800.509 
-1317.594 -599.1244 -2572.213 
-1389.135 -602.9180 -2541.452 
-1475.204 -719.2137 -2854.206 
-1360.262 -682.5341 -2818.375 
-1322.536 -619.3931 -2760.783 
-1332.460 -553.4401 -2846.845 
-1524.033 -614.5759 -2972.214 
-1468.250 -552.5127 -2905.696 
-1433.205 -500.9357 -3043.529 
-1389.335 -514.4631 -2894.112 
-1358.811 -409.4755 -2900.636 
-1534.699 -536.1306 -2984.992 
-1452.280 -516.5115 -3012.308 
-1999.497 -222.5256 -1651.980 
-1967.203 -93.75370 -1600.599 
-1964.427 -116.3848 -1675.012 
-1321.210 330.4181 -3117.376 
-1606.455 122.5679 -3338.418 
-1542.132 100.6973 -3290.560 
-1566.568 154.0940 -3264.236 
-1502.526 265.4708 -3282.487 
-1473.870 269.3469 -3199.982 
-1398.409 304.8056 -3197.635 
-1411.171 350.6120 -3214.781 
-1338.218 400.4082 -3185.429 
-1698.482 134.4913 -3368.257 
-1618.728 158.4007 -3333.287 
-1566.707 197.7865 -3308.053 
-1565.338 264.5416 -3292.548 
-1518.334 275.1695 -3241.611 
-1446.549 371.7570 -3249.551 
-1450.515 455.3466 -3218.771 
-1398.072 494.7890 -3213.028 
-1627.854 135.5023 -3298.261 
-1695.179 116.1283 -3317.767 
-1631.498 169.8387 -3324.840 
-1678.945 179.9875 -3253.915 
-1630.284 257.9635 -3246.185 
-1624.897 205.9495 -3276.421 
-1521.333 327.3099 -3270.141 
-1556.923 263.5811 -3234.458 
-1490.361 325.2032 -3195.444 
-1545.810 310.7275 -3171.775 
-1550.933 341.7907 -3268.513 
-1572.132 403.9464 -3129.833 
-1490.787 440.1137 -3242.099 
-1475.287 425.8590 -3143.581 
-1393.098 458.7482 -3174.136 
-1495.431 467.5342 -3172.580 
-1530.020 497.0395 -3073.511 
-324.4912 -1453.881 -2993.244 
-241.2248 -1388.111 -2975.938 
-309.4451 -1373.866 -2894.217 
-270.3999 -1365.692 -2876.586 
-209.6179 -1309.706 -2873.195 
-393.9109 -1446.153 -2943.439 
-358.6907 -1341.368 -2938.194 
-301.7590 -1324.342 -2980.897 
-231.8419 -1263.980 -2923.454 
-217.5000 -1209.984 -2910.136 
-351.4169 -1303.793 -2964.533 
-347.0734 -1257.459 -3006.640 
-238.9685 -1238.635 -2940.034 
-489.8348 -1351.723 -2992.405 
-393.5784 -1305.561 -3049.405 
-400.4536 -1238.771 -2992.569 
-315.4649 -1178.925 -3029.865 
-346.3480 -1186.603 -3024.548 
-486.2576 -1273.974 -3100.705 
-343.2139 -1136.801 -3069.710 
-373.8331 -1141.990 -2965.595 
-337.2966 -1432.908 -2992.834 
-374.4713 -1503.616 -2887.331 
-470.6819 -1484.941 -2826.557 
-405.6089 -1494.698 -2755.269 
-512.5354 -1492.843 -2754.635 
-558.9947 -1496.939 -2724.230 
-494.8970 -1461.571 -2635.474 
-343.4957 -1378.023 -2994.887 
-478.2159 -1449.601 -2962.334 
-415.7623 -1421.115 -2884.301 
-482.8203 -1413.591 -2853.531 
-523.3564 -1438.888 -2724.436 
-565.5292 -1489.597 -2678.121 
-604.9862 -1425.005 -2634.761 
-441.7265 -1402.006 -2950.553 
-457.4186 -1427.738 -2900.771 
-545.0602 -1376.613 -2880.218 
-515.5462 -1393.876 -2888.380 
-513.9143 -1375.144 -2819.835 
-567.8638 -1363.170 -2778.925 
-623.0538 -1449.310 -2689.059 
-497.9987 -1373.100 -2979.981 
-529.6002 -1348.427 -2993.804 
-550.8298 -1380.768 -2892.171 
-583.8692 -1397.827 -2852.253 
-567.2441 -1372.394 -2790.533 
-681.2180 -1379.859 -2808.097 
-703.1705 -1362.782 -2712.434 
-545.4725 -1317.153 -3004.542 
-514.6890 -1371.177 -2970.424 
-589.2621 -1335.846 -2896.951 
-637.7495 -1375.214 -2939.771 
-603.4722 -1292.158 -2806.767 
-637.0656 -1345.539 -2823.895 
-669.7584 -1334.589 -2776.591 
-596.1569 -1308.586 -3037.001 
-600.7279 -1306.428 -2999.562 
-630.5602 -1304.388 -2979.511 
-666.2253 -1252.202 -2900.267 
-665.7863 -1276.737 -2898.075 
-703.3975 -1282.583 -2793.612 
-733.3975 -1331.455 -2806.640 
-589.1885 -1218.723 -3100.803 
-666.1291 -1227.912 -3059.416 
-710.1589 -1294.277 -2989.237 
-659.8637 -1290.026 -2921.986 
-682.3307 -1292.506 -2870.682 
-765.4354 -1242.530 -2784.472 
-736.0867 -1237.172 -2731.595 
-624.0988 -1244.331 -3097.225 
-628.0603 -1192.728 -3027.825 
-664.3168 -1192.625 -2967.135 
-739.2599 -1227.386 -2915.797 
-761.0685 -1175.422 -2899.737 
-787.0709 -1182.958 -2891.385 
-796.6248 -1224.383 -2834.565 
-1842.584 -577.2697 -1550.408 
-1861.413 -602.8683 -1496.755 
-1810.372 -605.6064 -1595.642 
-1847.234 -534.0565 -1543.575 
-1929.998 -549.1423 -1558.268 
-1941.296 -480.3211 -1513.499 
-1977.447 -436.1977 -1663.790 
-1977.404 -462.2387 -1527.195 
-1930.301 -442.8405 -1618.651 
-1953.886 -297.2556 -1610.603 
-2010.158 -241.7215 -1611.155 
-1961.255 -378.7638 -1668.161 
-1978.030 -290.3244 -1663.824 
-1924.094 -222.7757 -1610.622 
24.52121 -1371.610 -2800.715 
92.46587 -1409.105 -2749.599 
136.8644 -1373.245 -2719.255 
215.0136 -1232.042 -2715.137 
158.7410 -1144.991 -2641.322 
267.2606 -1151.095 -2595.227 
263.1400 -1100.261 -2632.565 
289.8862 -1082.338 -2605.812 
12.11445 -1355.159 -2712.861 
4.577704 -1349.466 -2767.509 
64.94341 -1286.778 -2722.466 
44.78051 -1267.070 -2695.018 
143.4790 -1236.885 -2659.481 
138.5163 -1130.207 -2641.118 
188.9063 -1137.846 -2587.415 
160.0298 -1028.814 -2555.254 
274.0612 -1056.070 -2547.149 
-103.5171 -1320.425 -2756.493 
6.485323 -1336.921 -2723.417 
39.71642 -1211.123 -2693.480 
26.05560 -1236.378 -2703.027 
88.24326 -1126.479 -2693.520 
144.5462 -1138.205 -2636.271 
110.0985 -1093.315 -2692.757 
124.2956 -1045.064 -2596.145 
250.5339 -951.0190 -2609.315 
-72.85105 -1286.493 -2836.008 
-23.22185 -1246.919 -2814.749 
-71.55582 -1224.588 -2782.347 
34.49398 -1192.948 -2769.966 
29.44538 -1076.026 -2772.578 
103.0227 -1118.997 -2669.336 
108.9371 -991.2543 -2673.578 
128.4002 -998.9808 -2616.717 
123.2410 -956.5847 -2661.368 
-145.5289 -1244.359 -2819.362 
-92.88480 -1211.550 -2812.574 
-69.45030 -1129.980 -2772.870 
16.99885 -1110.615 -2796.994 
-0.3714957 -1130.094 -2753.125 
5.999538 -1076.120 -2729.982 
24.93603 -997.8879 -2684.284 
64.94655 -968.9164 -2663.647 
100.7410 -910.9217 -2700.103 
-118.4512 -1223.166 -2901.380 
-162.5264 -1131.274 -2877.664 
-97.54510 -1158.437 -2815.477 
-34.17423 -1056.186 -2778.560 
-45.02794 -1000.824 -2824.243 
16.09711 -1038.579 -2771.523 
4.972098 -923.4907 -2709.873 
44.75523 -925.8550 -2708.782 
59.08597 -826.0251 -2710.439 
179.5060 -1315.425 -2712.084 
147.8205 -1288.313 -2704.888 
51.39352 -1169.201 -2716.448 
70.74082 -1064.060 -2718.265 
48.08530 -1463.539 -2786.013 
117.7349 -1381.460 -2783.984 
169.1246 -1284.301 -2738.137 
226.6777 -1261.148 -2723.001 
213.1632 -1180.762 -2668.692 
252.5580 -1157.690 -2665.286 
340.5965 -1102.609 -2650.833 
353.8688 -1026.091 -2625.289 
43.21554 -1399.451 -2736.545 
16.06927 -1390.126 -2751.855 
49.93674 -1266.566 -2665.866 
191.9757 -1236.212 -2755.963 
78.51090 -1294.011 -2699.576 
104.6659 -1207.342 -2678.971 
123.9610 -1143.717 -2638.325 
241.3215 -1077.821 -2657.687 
278.0473 -1114.185 -2595.999 
262.4329 -1045.786 -2603.672 
130.9226 -1128.140 -2682.160 
-61.89729 -1316.180 -2764.071 
-47.54550 -1287.426 -2747.887 
38.45571 -1265.637 -2768.652 
62.87397 -1152.119 -2711.105 
27.51733 -1116.191 -2704.351 
135.7316 -1065.678 -2626.323 
158.4438 -985.9032 -2626.898 
194.3153 -1000.300 -2659.103 
-786.6481 -1567.965 -1063.283 
-812.5054 -1575.199 -973.6278 
-670.0164 -1472.694 -964.6442 
-867.4482 -1514.232 -1042.996 
-823.7820 -1489.973 -1069.906 
-724.7570 -1476.294 -991.3422 
-790.2302 -1393.680 -956.4320 
-907.7004 -1530.205 -1144.281 
-1035.904 -1537.575 -798.4824 
-1085.066 -1537.765 -788.8810 
-826.5559 -1454.719 -1090.637 
-780.3372 -1341.657 -1015.661 
-904.0048 -1511.025 -1096.148 
-872.4910 -1445.498 -1107.535 
-833.7030 -1357.842 -1109.135 
-844.1042 -1359.666 -998.4906 
-1000.375 -1412.221 -1180.982 
-921.3651 -1405.406 -1075.687 
-919.1548 -1301.743 -1006.912 
-1048.373 -1341.114 -764.1805 
-988.2123 -1346.291 -1078.194 
-1042.508 -1251.542 -873.6552 
-1123.337 -1352.447 -853.6462 
-1185.009 -1264.154 -847.4124 
-699.7580 -1477.204 -1033.004 
-739.7841 -1491.533 -996.1719 
-698.2083 -1421.873 -969.9916 
-775.8825 -1471.923 -911.3912 
-739.6474 -1456.371 -875.2208 
-752.6683 -1460.471 -811.7964 
-809.6147 -1438.726 -684.1492 
-894.5790 -1454.613 -632.6411 
-876.7863 -1476.366 -633.6995 
-789.5380 -1402.324 -925.1207 
-772.2070 -1398.519 -900.8208 
-765.5961 -1389.570 -894.6510 
-832.4041 -1365.395 -802.4222 
-887.6572 -1350.681 -801.5704 
-926.7883 -1378.709 -704.7110 
-893.7407 -1374.849 -657.3260 
-1068.699 -1467.619 -755.9417 
-875.1536 -1418.854 -1043.189 
-818.8655 -1395.236 -1027.215 
-835.2878 -1381.051 -1020.466 
-850.2933 -1369.256 -957.7389 
-874.4493 -1311.611 -889.8269 
-913.5443 -1332.179 -780.9171 
-917.9136 -1363.247 -816.8720 
-967.7714 -1308.949 -704.5967 
-1010.328 -1399.206 -679.0292 
-879.8197 -1347.528 -999.6818 
-886.1420 -1351.588 -916.2710 
-903.4067 -1343.748 -901.1810 
-913.4833 -1360.205 -891.9210 
-942.3862 -1303.451 -847.3002 
-989.3668 -1339.813 -727.5125 
-961.0773 -1328.571 -1100.154 
-902.8945 -1364.790 -1048.585 
-931.4201 -1370.819 -994.5656 
-968.1138 -1354.844 -899.7164 
-1031.032 -1265.567 -836.9131 
-1031.850 -1343.810 -733.5616 
-1003.468 -1338.697 -1211.111 
-990.1910 -1343.409 -1085.576 
-1056.710 -1390.081 -1040.240 
-1030.213 -1338.940 -998.6873 
-1016.307 -1309.567 -975.1011 
-1106.556 -1345.411 -874.5746 
-1069.668 -1302.694 -785.1429 
-1072.518 -1359.432 -1154.573 
-1099.952 -1351.344 -1163.444 
-1094.813 -1307.819 -1124.659 
-1066.755 -1318.392 -994.1517 
-1168.549 -1321.636 -967.8069 
-1170.645 -1330.206 -867.2638 
-1195.137 -1352.349 -837.7982 
-1058.532 -1292.732 -1257.678 
-1079.187 -1334.446 -1153.255 
-1101.225 -1325.043 -1135.932 
-1113.899 -1330.638 -1019.573 
-1165.902 -1305.780 -1000.927 
-1156.951 -1270.852 -962.4810 
-1232.727 -1336.840 -888.1265 
-1072.689 -1242.192 -1252.640 
-1140.566 -1210.768 -1192.364 
-1108.755 -1287.660 -1133.699 
-1210.994 -1279.770 -1044.839 
-1215.262 -1224.097 -1067.703 
-1219.340 -1299.431 -941.9526 
-750.9174 -1433.701 -1062.011 
-987.7323 -1555.319 -803.7729 
-741.1525 -1428.338 -1032.865 
-1100.107 -1496.052 -776.1065 
-883.0628 -1382.741 -1043.450 
-841.0383 -1363.981 -1026.361 
-874.3734 -1395.942 -1010.518 
-898.4000 -1332.358 -969.1325 
-884.0463 -1290.856 -930.3832 
-889.8936 -1300.450 -845.0408 
-959.2627 -1343.100 -792.2493 
-985.6135 -1337.710 -727.4915 
-970.6631 -1431.366 -1210.806 
-950.1542 -1341.671 -1099.678 
-1043.314 -1385.556 -1060.920 
-933.3323 -1296.524 -1027.196 
-994.9530 -1334.215 -983.2379 
-1050.579 -1315.963 -887.4354 
-1053.570 -1326.595 -840.0490 
-1113.399 -1291.417 -975.2201 
-1087.721 -1320.509 -973.9550 
-1154.648 -1273.275 -953.5710 
-1094.857 -1325.406 -815.9891 
-1172.164 -1263.983 -851.4359 
-28.21478 -2108.224 -2180.113 
39.91328 -2072.607 -2257.363 
-68.27539 -2058.890 -2157.308 
-75.16900 -2123.441 -2099.918 
-58.25878 -2049.992 -2123.996 
-106.8082 -2140.734 -2091.441 
-205.9613 -2086.088 -2090.098 
-254.4004 -2092.881 -1957.290 
-120.7617 -1940.836 -2290.378 
-184.8569 -2025.257 -2196.917 
-284.9717 -1949.833 -1923.274 
-437.3796 -1925.793 -2007.350 
-364.2356 -1910.021 -2121.532 
-364.5151 -1869.052 -2235.993 
-37.48449 -2094.082 -2142.373 
-25.78984 -2149.220 -2112.158 
-63.60965 -2125.991 -2023.710 
-132.6107 -2174.910 -2038.884 
-86.93629 -2151.413 -1970.129 
-141.9565 -2107.315 -1936.592 
-226.9259 -2159.634 -1820.901 
75.32007 -2092.244 -2266.519 
35.97007 -2120.476 -2151.566 
1.789620 -2144.970 -2204.518 
-124.0714 -2065.790 -2087.210 
-165.9648 -2148.797 -1991.724 
-138.5821 -2147.339 -1997.471 
-189.7650 -2122.233 -1885.783 
-202.5478 -2073.025 -1843.197 
-17.60543 -2098.172 -2256.388 
-66.39670 -2048.563 -2139.009 
-108.0076 -2134.173 -2051.353 
-159.6242 -2085.192 -2076.567 
-164.8112 -2040.485 -1939.467 
-189.9644 -2068.860 -1955.611 
-24.10763 -2022.747 -2257.455 
-29.48551 -2010.657 -2259.354 
-51.64387 -2012.999 -2150.001 
-112.3172 -2079.255 -2149.005 
-120.4634 -2090.850 -2070.608 
-231.9519 -2069.250 -1866.573 
-56.93058 -1992.644 -2359.409 
-91.89775 -2025.828 -2275.769 
-175.1839 -2007.382 -2212.810 
-200.7933 -2025.082 -2116.687 
-167.7007 -2025.510 -2137.687 
-255.7819 -1988.514 -2057.119 
-248.2247 -1992.783 -2007.951 
-274.3413 -2066.644 -1926.853 
-296.0471 -2046.230 -1850.768 
-159.9395 -2026.737 -2299.006 
-173.1774 -2027.653 -2188.531 
-389.1125 -1960.338 -1934.574 
-124.9055 -2013.352 -2335.873 
-207.0322 -1958.785 -2151.677 
-266.1650 -1939.084 -2114.386 
-230.2462 -1977.740 -2055.150 
-277.6550 -1948.014 -2037.792 
-338.2396 -1985.083 -1993.714 
-149.0044 -1935.429 -2353.814 
-190.1294 -1971.912 -2320.317 
-185.9174 -1949.080 -2210.206 
-253.6120 -1976.630 -2237.939 
-287.3014 -1892.805 -2131.418 
-279.3403 -1960.564 -2067.085 
-331.4525 -1907.752 -2067.203 
-354.1622 -1912.928 -1963.626 
-349.2455 -1931.011 -1895.487 
-456.6356 -1892.803 -1949.467 
-148.0999 -1851.391 -2384.780 
-245.2300 -1876.749 -2354.746 
-258.9133 -1841.033 -2270.120 
-270.1353 -1927.308 -2196.863 
-271.5235 -1845.118 -2205.877 
-358.0397 -1940.203 -2109.946 
-409.7902 -1895.413 -2047.721 
-390.8551 -1871.828 -1997.203 
-447.9262 -1891.574 -2099.336 
-459.6178 -1846.864 -2047.076 
-493.1387 -1867.505 -2023.366 
-217.4531 -1833.227 -2391.305 
-249.3215 -1860.870 -2360.176 
-252.3585 -1841.526 -2285.019 
-310.8311 -1891.872 -2234.918 
-319.8906 -1864.005 -2208.550 
-376.8412 -1837.487 -2140.817 
-385.9560 -1783.140 -2218.569 
-470.1887 -1835.471 -2071.487 
-526.8392 -1864.661 -2091.193 
-472.0631 -1868.541 -1981.502 
-280.9312 -1809.136 -2457.444 
-334.1082 -1804.383 -2362.996 
-295.4018 -1802.801 -2268.146 
-340.2469 -1858.007 -2292.709 
-332.8198 -1784.989 -2251.630 
17.92374 -2074.740 -2167.532 
15.57491 -2132.429 -2168.673 
-92.45422 -2066.483 -2109.588 
-40.55428 -2040.952 -2177.212 
-145.2781 -2064.031 -2145.945 
-269.7112 -2055.254 -1862.142 
-214.9897 -2039.662 -2056.342 
-182.8067 -2043.544 -1985.956 
-228.5004 -2032.869 -1961.689 
-171.9315 -1947.196 -2258.944 
-145.9850 -2043.208 -2261.276 
-330.3462 -2011.016 -1888.893 
-170.2652 -1948.021 -2287.186 
-195.0228 -1986.816 -2265.716 
-349.0981 -1957.362 -1976.449 
-421.6697 -1932.999 -1940.780 
-427.4307 -1835.585 -2045.994 
-452.9000 -1893.886 -1987.855 
-368.3134 -1806.984 -2140.937 
-129.5825 -1654.498 -2856.859 
-77.16953 -1629.212 -2880.790 
-27.34466 -1532.694 -2862.532 
-17.29542 -1513.886 -2751.579 
-220.6003 -1590.649 -2874.310 
-187.4394 -1587.123 -2809.564 
-101.4479 -1549.315 -2791.158 
-52.16669 -1471.530 -2845.329 
-18.38919 -1449.506 -2788.980 
-231.7026 -1599.251 -2904.325 
-165.7124 -1547.798 -2833.198 
-148.6057 -1503.917 -2823.390 
-108.0271 -1449.281 -2807.838 
-50.75818 -1402.527 -2788.239 
-264.1336 -1540.556 -2937.630 
-205.3406 -1532.668 -2931.168 
-207.4641 -1470.105 -2918.491 
-131.0799 -1348.233 -2836.955 
-117.6444 -1326.626 -2796.574 
-265.1162 -1446.909 -2905.354 
-209.1740 -1484.684 -2933.403 
-268.3357 -1407.008 -2884.896 
-222.4898 -1319.888 -2907.109 
-209.3874 -1271.095 -2833.063 
-289.9034 -1493.678 -2925.826 
-262.7022 -1361.614 -2997.427 
-236.3648 -1336.235 -2973.762 
-279.9077 -1298.939 -2913.585 
-202.4265 -1257.380 -2847.518 
-155.7271 -1231.399 -2894.922 
-57.94434 -1751.490 -2814.363 
-41.93814 -1767.255 -2770.155 
-85.40151 -1810.969 -2715.916 
-142.8119 -1770.011 -2618.889 
-166.5356 -1816.396 -2604.589 
-207.7861 -1835.219 -2474.204 
-208.2996 -1829.302 -2427.851 
-92.82162 -1724.339 -2821.753 
-67.77489 -1791.196 -2760.098 
-144.0989 -1767.606 -2728.711 
-207.4991 -1774.676 -2669.312 
-172.4327 -1798.776 -2605.777 
-252.2751 -1772.042 -2518.177 
-239.8453 -1754.442 -2494.449 
-271.3096 -1720.653 -2489.373 
-80.09628 -1695.246 -2890.963 
-130.9016 -1699.454 -2838.344 
-142.6540 -1740.070 -2742.346 
-162.3345 -1747.141 -2752.281 
-188.0845 -1746.600 -2686.553 
-276.4041 -1730.475 -2631.062 
-234.3271 -1721.667 -2520.331 
-349.3371 -1768.349 -2545.411 
-366.4369 -1680.023 -2458.809 
-136.3580 -1659.274 -2889.205 
-152.4038 -1703.191 -2813.452 
-173.7619 -1648.297 -2715.697 
-281.2491 -1719.516 -2722.413 
-294.7814 -1684.951 -2686.726 
-307.4763 -1702.657 -2583.738 
-319.2143 -1639.670 -2560.557 
-374.6023 -1724.316 -2487.315 
-12.83416 -1471.305 -2873.954 
12.61869 -1514.752 -2832.162 
-215.3271 -1652.078 -2767.116 
-221.9933 -1611.171 -2752.183 
-301.5220 -1685.021 -2683.882 
-287.9175 -1624.920 -2686.082 
-369.7572 -1636.333 -2659.022 
-338.8028 -1596.629 -2552.279 
-407.1407 -1646.041 -2547.864 
-98.23528 -1493.627 -2833.018 
-94.24434 -1442.677 -2798.630 
-254.9748 -1600.104 -2863.826 
-274.4834 -1605.203 -2798.458 
-308.9730 -1602.764 -2703.506 
-326.9702 -1618.036 -2679.943 
-346.7512 -1632.286 -2601.971 
-473.5774 -1610.701 -2615.753 
-486.7294 -1577.247 -2555.175 
-190.8163 -1544.834 -2887.107 
-151.4969 -1414.952 -2819.608 
-238.3025 -1525.821 -2946.195 
-360.9391 -1582.782 -2873.883 
-381.8872 -1568.784 -2778.077 
-350.3587 -1556.967 -2752.105 
-407.4136 -1535.245 -2707.264 
-396.4080 -1547.262 -2615.516 
-419.6931 -1575.339 -2561.665 
-480.0401 -1545.004 -2506.628 
-311.6662 -1530.364 -2880.249 
-315.4763 -1521.471 -2853.227 
-427.0400 -1499.749 -2847.654 
-416.8767 -1487.821 -2821.639 
-482.5217 -1491.562 -2712.898 
-515.0424 -1539.030 -2718.097 
-534.8931 -1517.293 -2582.020 
-528.3608 -1559.087 -2579.044 
-394.1306 -1416.251 -2961.347 
-391.5100 -1509.662 -2872.527 
-393.1259 -1531.031 -2844.990 
-459.9654 -1452.161 -2848.202 
-487.6401 -1500.076 -2724.806 
-505.6043 -1537.239 -2660.539 
-508.8594 -1502.315 -2685.843 
-603.9154 -1481.418 -2587.384 
-95.38567 -1672.551 -2850.076 
-24.88635 -1618.862 -2865.657 
9.669944 -1599.047 -2874.255 
-21.87464 -1431.437 -2810.867 
-162.5838 -1599.349 -2899.268 
-160.7388 -1573.561 -2826.770 
-104.1331 -1566.494 -2813.900 
10.96245 -1522.066 -2841.112 
-54.09089 -1400.912 -2781.287 
-137.3119 -1493.772 -2835.258 
-146.2925 -1536.021 -2819.456 
-78.90088 -1456.919 -2774.953 
-197.6738 -1545.309 -2905.160 
-108.2242 -1475.914 -2785.349 
-111.1139 -1396.520 -2825.479 
854.6313 -2337.175 -1991.572 
928.1140 -2289.743 -1962.786 
899.0740 -2278.535 -1871.146 
938.5044 -2262.739 -1907.916 
954.2803 -2206.774 -1857.078 
1026.914 -2082.700 -1890.599 
996.1545 -2035.544 -1803.101 
1062.355 -2074.972 -1813.986 
1059.833 -2019.200 -1765.318 
789.8570 -2336.174 -2037.376 
800.6295 -2295.677 -1927.476 
902.2479 -2268.874 -1910.320 
957.6548 -2188.817 -1956.036 
972.4395 -2154.029 -1944.899 
951.6518 -2090.399 -1930.216 
1052.512 -2008.938 -1914.540 
1047.894 -1960.735 -1855.718 
1098.618 -1984.720 -1794.700 
739.1414 -2256.654 -1999.310 
769.6983 -2194.440 -2027.694 
797.9175 -2173.983 -1991.531 
850.8569 -2173.510 -1959.713 
924.1220 -2104.996 -1896.706 
947.5202 -2097.524 -1911.544 
966.8430 -1989.879 -1924.929 
1045.522 -1937.408 -1911.758 
1049.286 -1936.277 -1867.938 
753.0909 -2196.236 -2102.535 
784.8069 -2181.904 -2074.479 
792.3643 -2133.579 -2059.298 
833.8824 -2130.024 -1979.450 
830.6669 -2049.509 -2016.951 
949.0581 -1971.726 -1902.692 
895.9286 -1997.410 -1957.764 
931.2766 -1949.277 -1870.665 
1050.983 -1895.571 -1843.901 
701.4005 -2179.961 -2138.978 
747.5491 -2191.482 -2039.343 
793.5571 -2074.039 -2022.817 
765.9991 -2109.274 -2048.311 
883.6882 -2007.442 -1977.182 
860.9660 -1986.278 -2027.185 
902.6124 -1929.608 -1933.445 
919.3179 -1834.815 -1898.181 
967.3794 -1885.053 -1927.164 
717.5655 -2118.956 -2185.423 
710.2761 -2091.153 -2085.542 
711.2704 -2079.105 -2082.167 
753.8400 -2072.355 -2028.059 
840.4199 -1952.651 -2061.182 
851.9665 -1979.352 -2014.269 
918.1743 -1862.799 -1974.825 
952.8713 -1866.683 -2003.131 
947.7924 -1753.252 -1917.381 
799.8537 -2252.268 -1988.404 
810.8198 -2136.537 -2002.356 
794.9794 -2130.770 -2040.198 
809.0159 -2091.217 -1989.598 
933.7460 -1910.381 -1964.504 
787.7292 -2284.294 -1997.117 
813.6100 -2186.389 -2028.264 
873.6827 -2077.552 -1953.182 
829.1212 -2123.970 -2004.111 
855.8273 -2070.909 -2007.836 
831.8418 -2013.505 -1938.836 
869.7869 -1938.531 -1925.994 
972.3447 -1923.052 -1953.363 
1009.548 -1880.188 -1933.280 
-694.3474 -1665.153 -983.4754 
-942.0848 -1683.344 -703.5032 
-702.8523 -1580.401 -946.0817 
-851.7478 -1610.881 -630.0876 
-666.1934 -1560.864 -990.3442 
-861.2635 -1561.252 -625.4684 
-825.0405 -1602.845 -611.2938 
-881.4552 -1608.686 -602.7684 
-683.7928 -1538.872 -792.1695 
-707.9406 -1571.876 -737.0020 
-793.8187 -1617.764 -1021.867 
-764.0040 -1573.521 -979.6605 
-675.2585 -1558.894 -1006.371 
-723.9493 -1453.162 -902.5356 
-803.7136 -1571.742 -646.5281 
-836.7859 -1597.033 -568.1405 
-645.6805 -1577.362 -892.7474 
-665.7855 -1541.055 -870.9786 
-715.8121 -1492.916 -763.0731 
-775.4221 -1580.660 -709.5607 
-828.4619 -1538.063 -642.9889 
-722.7635 -1474.587 -779.7424 
-655.9577 -1496.102 -948.3280 
-700.3005 -1520.598 -889.5847 
-773.4862 -1435.752 -810.7480 
-763.5737 -1455.237 -765.8741 
-792.5097 -1469.027 -746.3150 
-783.2340 -1469.281 -630.7479 
-852.6273 -1475.693 -576.6970 
-760.7216 -1679.278 -957.9676 
-773.3486 -1631.557 -953.6769 
-817.2679 -1644.145 -830.8605 
-816.7062 -1634.048 -817.6063 
-809.8266 -1646.437 -764.0989 
-919.0482 -1649.606 -724.3091 
-659.0247 -1631.431 -962.9840 
-683.0710 -1666.041 -884.7445 
-728.6491 -1593.181 -815.2377 
-834.0828 -1660.382 -752.6341 
-813.3076 -1620.899 -715.5670 
-830.2266 -1647.663 -643.1738 
-670.6813 -1572.901 -964.8480 
-721.1390 -1600.439 -884.4998 
-714.8256 -1573.170 -857.1997 
-725.5032 -1585.303 -789.3967 
-770.8533 -1528.499 -725.7778 
-868.7161 -1565.197 -649.6700 
-733.4344 -1510.779 -807.4140 
-948.0844 -1671.830 -696.2861 
-928.7344 -1557.920 -683.5833 
-786.9937 -1557.815 -644.0294 
-658.0005 -1513.798 -838.3515 
-724.2729 -1511.208 -719.9330 
-751.4688 -1509.232 -745.2252 
-851.9658 -1556.725 -662.8943 
-886.9323 -1459.636 -571.5176 
-736.5750 -1460.854 -1000.352 
-731.2867 -1439.201 -919.7488 
155.4428 -2433.713 -1633.081 
118.4878 -2466.550 -1575.253 
-5.719790 -2458.808 -1464.223 
-123.5100 -2457.034 -1240.525 
-10.45843 -2385.122 -1527.071 
14.67873 -2422.931 -1493.925 
-90.62009 -2416.190 -1264.739 
49.79773 -2348.150 -1683.698 
-16.05263 -2340.479 -1577.803 
-36.85997 -2404.355 -1572.260 
-123.4975 -2392.903 -1411.828 
-160.1463 -2358.595 -1383.205 
-211.8650 -2386.183 -1294.170 
-75.22893 -2382.145 -1566.790 
-87.17408 -2359.584 -1488.980 
-218.8110 -2307.475 -1362.537 
-230.5131 -2347.066 -1313.431 
-88.10209 -2283.248 -1744.770 
-86.73618 -2256.317 -1632.563 
-169.5216 -2311.006 -1633.056 
-198.7844 -2245.117 -1648.028 
-206.4287 -2277.868 -1494.903 
-267.4138 -2311.274 -1424.619 
-148.9543 -2233.216 -1820.950 
-202.9171 -2190.698 -1739.617 
-201.0734 -2183.973 -1714.411 
-252.4659 -2222.128 -1659.337 
-223.1617 -2206.917 -1609.695 
-409.6979 -2106.240 -1526.044 
-334.7526 -2148.394 -1472.660 
-381.0447 -2138.007 -1446.523 
148.9702 -2456.938 -1700.171 
88.75031 -2413.727 -1603.923 
83.61942 -2470.887 -1484.521 
19.02481 -2420.226 -1495.024 
-147.6161 -2448.993 -1241.357 
152.0461 -2450.876 -1613.113 
15.66702 -2486.019 -1417.936 
-15.35924 -2484.853 -1371.666 
-52.01735 -2503.462 -1335.905 
122.0698 -2440.212 -1695.024 
56.95741 -2382.423 -1601.205 
21.07145 -2445.604 -1615.855 
-7.574654 -2457.698 -1496.846 
-26.20609 -2404.923 -1447.406 
-61.57193 -2456.578 -1374.906 
-115.0656 -2445.806 -1273.898 
11.61198 -2404.931 -1536.955 
-173.9454 -2378.947 -1238.576 
-29.68110 -2404.291 -1683.847 
-45.16589 -2392.679 -1570.999 
-94.86124 -2371.039 -1474.454 
-77.10447 -2370.210 -1347.892 
-141.4682 -2382.776 -1372.453 
86.88509 -2346.631 -1706.670 
18.85058 -2363.169 -1579.467 
-105.2849 -2413.301 -1432.765 
-147.9270 -2426.929 -1272.240 
-4.358203 -2377.207 -1731.390 
-61.16551 -2353.985 -1717.500 
-86.83653 -2299.691 -1573.201 
-90.15317 -2366.958 -1583.288 
-170.8708 -2393.855 -1450.434 
-209.5821 -2311.129 -1380.060 
-189.0173 -2391.549 -1356.174 
-63.56397 -2299.749 -1470.984 
-232.9669 -2359.912 -1333.841 
-17.17122 -2283.908 -1705.865 
-71.52682 -2284.640 -1684.111 
-140.8320 -2337.283 -1543.980 
-194.9343 -2274.674 -1575.803 
-129.9484 -2308.837 -1487.440 
-222.2122 -2330.710 -1461.958 
-287.0900 -2340.992 -1374.503 
-291.7236 -2312.375 -1302.796 
-99.92953 -2256.080 -1709.646 
-95.25803 -2228.442 -1744.317 
-109.5036 -2223.150 -1671.419 
-173.3742 -2277.226 -1707.028 
-178.1670 -2311.144 -1599.550 
-185.3310 -2278.470 -1502.059 
-254.7668 -2320.624 -1440.471 
-260.5279 -2250.789 -1336.326 
-133.5706 -2270.844 -1584.200 
-273.7279 -2259.248 -1419.181 
-182.7535 -2210.396 -1719.658 
-248.2696 -2203.284 -1609.171 
-194.3544 -2249.995 -1619.229 
-243.0646 -2188.813 -1500.741 
-338.1733 -2198.387 -1523.316 
-357.9185 -2229.993 -1380.342 
-308.7825 -2271.378 -1336.196 
-130.8700 -2209.342 -1764.519 
-213.0867 -2263.884 -1636.578 
-146.1982 -2234.520 -1860.275 
-173.1505 -2150.394 -1726.396 
-183.3792 -2166.997 -1731.494 
-276.9471 -2212.459 -1700.632 
-285.5560 -2228.838 -1576.261 
-372.5532 -2205.581 -1473.798 
-401.3581 -2226.281 -1480.772 
-402.5256 -2162.302 -1443.535 
-313.2780 -2231.052 -1589.347 
-171.5739 -2144.610 -1814.477 
-277.9417 -2124.046 -1710.953 
-330.1272 -2145.071 -1671.917 
-359.5925 -2137.678 -1671.182 
-375.7482 -2142.329 -1565.793 
-443.8319 -2117.640 -1503.777 
-343.1458 -2127.225 -1511.043 
-400.7410 -2183.198 -1397.119 
87.51184 -2431.903 -1664.991 
6.353910 -2456.684 -1516.096 
-25.97170 -2414.298 -1401.553 
-36.56380 -2436.123 -1306.431 
-86.08250 -2425.531 -1264.027 
-84.79129 -2432.816 -1203.955 
50.48305 -2405.779 -1660.398 
-20.47687 -2370.238 -1618.875 
-9.213258 -2404.716 -1567.740 
-81.50513 -2428.214 -1417.126 
-2.923286 -2322.963 -1739.455 
9.654400 -2372.891 -1662.840 
-53.09524 -2373.386 -1558.794 
-103.5265 -2356.406 -1468.116 
-233.2228 -2395.577 -1324.676 
-169.0689 -2371.739 -1330.348 
-89.09949 -2281.321 -1671.725 
-104.0445 -2320.673 -1559.468 
-186.4715 -2344.658 -1349.297 
-80.77263 -2280.906 -1749.742 
-128.1367 -2236.222 -1628.483 
-279.5956 -2276.345 -1435.455 
-88.56644 -2229.492 -1765.047 
-125.2692 -2201.274 -1697.110 
-117.7297 -2235.807 -1568.551 
-205.1175 -2228.441 -1477.563 
-154.2547 -2206.016 -1779.924 
-146.4102 -2203.984 -1687.361 
-271.1748 -2200.371 -1587.958 
-302.2253 -2230.978 -1646.942 
-353.7681 -2146.935 -1556.740 
-359.6389 -2147.191 -1375.806 
-1005.869 -1612.750 -1224.573 
-975.2542 -1603.724 -1195.033 
-986.6891 -1460.976 -1194.458 
-1082.199 -1590.874 -1217.421 
-1014.753 -1503.905 -1179.599 
-959.9472 -1511.143 -1177.487 
-1089.248 -1556.113 -1293.253 
-1114.040 -1550.111 -1217.885 
-1058.841 -1457.737 -1266.705 
-1003.263 -1416.243 -1226.078 
-1023.647 -1353.773 -1204.356 
-1105.227 -1494.711 -1273.710 
-1073.055 -1450.106 -1272.063 
-1020.875 -1431.380 -1287.205 
-1010.987 -1438.971 -1257.364 
-1032.764 -1341.162 -1177.608 
-1255.511 -1540.806 -1351.434 
-1189.572 -1518.559 -1366.148 
-1147.875 -1449.329 -1295.116 
-1059.111 -1417.715 -1329.395 
-1081.121 -1323.245 -1255.020 
-1050.657 -1304.999 -1209.424 
-1086.195 -1512.687 -1748.236 
-1262.722 -1541.095 -1393.489 
-1233.206 -1441.467 -1363.949 
-1124.740 -1381.693 -1374.732 
-1181.511 -1364.396 -1335.888 
-1095.528 -1340.284 -1308.969 
-1071.475 -1314.686 -1273.036 
-735.7978 -1845.328 -1633.876 
-823.5532 -1885.122 -1518.437 
-863.5062 -1821.331 -1457.703 
-850.9966 -1858.894 -1444.534 
-914.8778 -1866.099 -1415.814 
-873.2294 -1854.629 -1337.705 
-962.6323 -1833.503 -1300.147 
-982.8833 -1834.919 -1241.358 
-1040.905 -1860.694 -1229.286 
-817.9493 -1758.829 -1579.686 
-788.0436 -1799.551 -1564.728 
-898.3930 -1783.363 -1521.713 
-898.6832 -1786.419 -1460.138 
-898.4375 -1811.882 -1368.146 
-974.9592 -1830.902 -1335.352 
-965.4040 -1776.767 -1346.627 
-1019.423 -1830.820 -1305.016 
-1043.289 -1800.273 -1216.278 
-791.6476 -1748.090 -1658.868 
-911.4990 -1760.337 -1626.197 
-918.8119 -1823.883 -1506.110 
-882.1429 -1765.712 -1482.407 
-966.8345 -1794.447 -1455.830 
-977.4130 -1746.410 -1408.892 
-995.4635 -1776.097 -1339.923 
-1091.130 -1814.319 -1268.451 
-1082.512 -1786.930 -1187.485 
-903.1137 -1731.604 -1642.952 
-902.8212 -1708.498 -1629.101 
-935.1352 -1769.586 -1549.948 
-928.9711 -1748.278 -1477.305 
-957.5414 -1697.546 -1509.434 
-976.3611 -1764.474 -1371.842 
-1036.179 -1752.019 -1307.204 
-1076.901 -1784.626 -1349.435 
-1146.316 -1738.397 -1219.133 
-975.0834 -1636.341 -1235.626 
-918.7867 -1455.189 -1182.055 
-890.3741 -1711.740 -1650.584 
-950.4797 -1704.260 -1591.309 
-956.9687 -1688.034 -1592.234 
-1050.397 -1709.309 -1557.834 
-1046.529 -1676.584 -1486.330 
-1077.013 -1752.939 -1433.916 
-1079.442 -1734.726 -1390.014 
-1079.029 -1718.913 -1367.240 
-1147.455 -1670.144 -1242.259 
-1031.729 -1588.122 -1179.391 
-1004.327 -1466.166 -1109.233 
-905.0092 -1610.274 -1696.641 
-943.6837 -1666.990 -1619.490 
-986.3382 -1683.232 -1645.285 
-1052.322 -1658.395 -1539.179 
-1118.496 -1629.525 -1499.774 
-1083.661 -1688.577 -1421.787 
-1138.900 -1623.500 -1382.692 
-1195.889 -1624.123 -1309.462 
-1211.409 -1630.647 -1313.667 
-1127.433 -1624.802 -1231.395 
-964.5816 -1660.422 -1761.529 
-1039.736 -1581.913 -1651.524 
-1014.416 -1648.817 -1673.623 
-1109.930 -1647.841 -1527.181 
-1140.293 -1590.935 -1566.097 
-1168.862 -1610.860 -1457.611 
-1159.562 -1612.132 -1376.639 
-1153.348 -1606.310 -1325.271 
-1271.737 -1641.450 -1325.156 
-1148.981 -1563.703 -1288.506 
-986.5014 -1565.572 -1773.714 
-1038.314 -1534.408 -1685.577 
-1079.057 -1532.616 -1681.426 
-1167.508 -1564.148 -1628.839 
-1147.013 -1596.456 -1572.052 
-1159.578 -1605.607 -1504.046 
-1225.395 -1610.549 -1414.979 
-1297.126 -1548.592 -1400.399 
-1227.410 -1562.957 -1384.244 
-1212.378 -1534.306 -1290.674 
-1130.207 -1500.454 -1324.611 
-1052.668 -1318.920 -1249.021 
-1098.116 -1525.770 -1746.542 
-1142.379 -1535.195 -1647.369 
-1131.925 -1567.935 -1665.647 
-1209.489 -1568.332 -1575.319 
-1241.532 -1590.808 -1566.263 
-1269.851 -1560.739 -1462.000 
-1295.433 -1559.794 -1365.992 
-1351.237 -1501.934 -1360.000 
-1022.988 -1511.041 -1728.903 
-1328.678 -1505.325 -1352.776 
-1179.800 -1425.942 -1386.357 
-1129.643 -1287.588 -1319.310 
-1012.880 -1670.868 -1142.847 
-928.6355 -1551.322 -1150.259 
-947.7057 -1474.829 -1146.234 
-1061.598 -1583.616 -1263.796 
-1192.294 -1559.499 -1314.902 
-1100.787 -1415.626 -1357.524 
-1039.529 -1456.113 -1246.976 
-1064.535 -1540.664 -1785.739 
-1069.930 -1309.690 -1306.790 
-720.4574 -1482.072 -1021.099 
-792.7119 -1452.576 -1065.300 
-1102.135 -1240.018 -1239.900 
-1107.620 -1292.811 -1242.753 
357.8022 -2569.880 -1846.102 
406.3347 -2583.601 -1749.081 
387.4565 -2465.135 -2015.947 
295.4042 -2409.169 -1984.574 
260.5898 -2479.211 -1989.909 
486.7575 -2594.036 -2008.548 
515.6503 -2639.284 -1976.867 
429.4522 -2615.691 -1843.054 
425.9199 -2635.058 -1783.162 
478.1751 -2582.643 -1960.680 
467.3837 -2527.042 -1979.866 
414.7769 -2605.462 -1890.165 
374.0185 -2607.884 -1806.480 
382.1655 -2601.979 -1775.557 
293.6963 -2578.066 -1692.557 
230.3941 -2539.694 -1682.354 
219.8950 -2617.095 -1547.352 
334.7206 -2544.244 -1804.469 
419.7993 -2572.270 -2056.574 
421.5277 -2495.149 -1965.497 
417.9362 -2499.336 -1900.957 
354.1147 -2522.524 -1859.725 
292.8322 -2513.991 -1824.316 
284.6839 -2568.319 -1737.863 
293.9458 -2539.607 -1772.348 
243.7268 -2536.857 -1713.625 
214.2167 -2541.099 -1617.053 
346.0032 -2521.902 -2035.123 
369.4328 -2543.979 -1966.712 
289.9626 -2516.508 -1932.259 
292.8118 -2487.089 -1843.350 
208.1696 -2515.591 -1778.657 
265.7686 -2513.326 -1718.139 
173.3903 -2477.861 -1678.626 
183.0245 -2529.663 -1597.869 
411.1908 -2489.262 -2028.422 
358.0930 -2439.952 -2041.933 
382.8137 -2452.389 -2060.308 
252.4790 -2466.777 -1945.821 
284.4644 -2415.005 -1848.242 
250.1026 -2463.459 -1800.618 
211.1899 -2490.146 -1727.500 
195.2739 -2481.728 -1763.512 
280.5514 -2404.979 -1939.627 
344.7633 -2555.299 -1749.755 
330.5325 -2529.165 -1831.338 
394.7920 -2514.506 -2083.054 
415.7620 -2443.982 -2039.718 
306.3792 -2471.424 -1974.611 
-93.04525 -2491.729 -1175.531 
-176.5794 -2422.201 -1180.283 
-182.9256 -2471.609 -1046.152 
-235.9731 -2431.202 -986.9542 
-131.0309 -2390.171 -1186.545 
-179.0140 -2465.706 -1149.075 
-266.3015 -2402.183 -1080.981 
-299.2302 -2480.737 -1003.394 
-346.3092 -2466.463 -977.2138 
-215.4333 -2399.887 -1254.931 
-203.8759 -2437.683 -1148.604 
-296.3060 -2417.772 -1163.143 
-277.2683 -2388.075 -1159.633 
-350.3918 -2400.898 -1082.847 
-396.1436 -2407.873 -1038.323 
-362.4607 -2345.372 -941.3083 
-450.6458 -2348.300 -899.2352 
-271.2937 -2397.292 -1245.560 
-320.0406 -2349.875 -1208.179 
-430.5670 -2376.287 -931.7854 
-354.2230 -2288.176 -1247.060 
-347.8779 -2271.137 -1261.999 
-443.5728 -2284.402 -1063.643 
-550.6239 -2242.502 -945.2662 
-386.2454 -2224.849 -1289.396 
-405.2978 -2269.907 -1218.604 
-460.8832 -2230.829 -1155.752 
-615.3890 -2284.830 -960.8054 
-437.5697 -2236.415 -1213.513 
-540.8782 -2231.842 -1248.695 
-611.0339 -2238.968 -992.4054 
-611.3105 -2111.700 -1066.894 
-131.6124 -2469.712 -1137.513 
-199.0428 -2432.902 -1118.061 
-330.4344 -2493.223 -891.1401 
-278.9732 -2451.490 -860.8442 
-339.0603 -2460.590 -819.6882 
-88.95590 -2453.872 -1225.996 
-201.7291 -2443.885 -1010.007 
-245.8750 -2439.883 -1010.717 
-203.0939 -2379.783 -1237.113 
-208.5875 -2454.598 -1135.453 
-220.9248 -2439.566 -1065.427 
-317.3513 -2406.338 -1052.541 
-395.8039 -2464.359 -879.8058 
-358.5809 -2435.560 -881.9153 
-238.6805 -2449.900 -1065.008 
-374.6382 -2453.510 -948.6651 
-193.1998 -2421.641 -1243.030 
-289.7147 -2396.846 -1180.635 
-349.6462 -2370.349 -997.3628 
-351.7021 -2376.477 -903.7112 
-224.7106 -2367.994 -1138.090 
-304.3088 -2384.261 -1046.573 
-384.1445 -2433.657 -1014.962 
-373.5592 -2346.956 -842.2029 
-360.4570 -2344.754 -1140.036 
-347.3639 -2344.251 -1085.297 
-377.4756 -2394.721 -1028.490 
-406.1326 -2314.820 -960.0941 
-452.1063 -2384.793 -976.8853 
-266.3764 -2351.443 -1304.494 
-289.2019 -2387.338 -1182.343 
-513.4012 -2345.411 -915.5002 
-252.6944 -2339.971 -1319.139 
-331.8398 -2297.510 -1274.727 
-382.5236 -2270.770 -1210.072 
-375.3899 -2301.623 -1111.287 
-425.0792 -2356.551 -1024.826 
-396.1984 -2271.035 -990.5222 
-429.5499 -2279.001 -933.2925 
-471.8232 -2325.411 -954.6051 
-346.6705 -2230.134 -1268.319 
-372.0373 -2237.370 -1254.093 
-431.9752 -2260.613 -1047.021 
-461.9720 -2328.417 -1018.617 
-566.9926 -2328.261 -999.9970 
-362.5846 -2297.921 -1238.669 
-390.4887 -2239.203 -1166.116 
-533.1910 -2278.258 -900.9443 
-361.9595 -2231.807 -1368.092 
-397.3795 -2252.997 -1174.819 
-470.4978 -2234.852 -1193.557 
-502.6246 -2270.255 -1098.628 
-596.1191 -2210.151 -964.1815 
-417.1371 -2230.211 -1241.702 
-514.5878 -2254.257 -1058.391 
-571.1693 -2190.097 -996.8329 
-376.1998 -2187.128 -1353.755 
-428.4538 -2230.258 -1267.506 
-533.1151 -2239.317 -1163.846 
-539.0909 -2182.273 -1152.602 
-542.9609 -2180.259 -1067.951 
-592.1206 -2215.528 -1073.643 
-490.2238 -2195.246 -1247.173 
-620.8934 -2175.522 -962.5474 
-578.7246 -2171.720 -1099.230 
-629.9937 -2130.345 -1023.409 
-628.0689 -2135.586 -1016.651 
-491.0128 -2168.679 -1373.604 
-468.6459 -2201.101 -1302.457 
-499.6307 -2186.378 -1272.777 
-539.3797 -2203.792 -1175.728 
-568.4915 -2168.149 -1126.945 
-198.4053 -2479.552 -1183.920 
-206.4755 -2431.412 -1102.581 
-272.1781 -2456.019 -1019.859 
-268.0070 -2479.047 -1016.242 
-356.6485 -2452.730 -919.0684 
-256.4703 -2391.301 -1172.194 
-259.5649 -2414.628 -1158.879 
-336.1727 -2409.157 -1101.976 
-443.8612 -2443.592 -842.5410 
-221.1792 -2386.181 -1280.471 
-335.6287 -2343.105 -1085.923 
-402.3443 -2351.138 -1023.262 
-257.7366 -2376.120 -1228.498 
-303.9922 -2333.702 -1253.437 
-294.4567 -2293.733 -1203.973 
-314.5668 -2337.410 -1101.322 
-426.7184 -2345.021 -1008.923 
-416.6808 -2318.569 -1032.196 
-427.6360 -2292.330 -922.6995 
-467.3713 -2337.585 -1052.854 
-504.8628 -2244.205 -1012.273 
-563.0620 -2306.101 -945.4199 
-399.5685 -2314.048 -1259.103 
-407.0588 -2201.372 -1225.666 
-456.3988 -2229.144 -1203.649 
-547.4847 -2299.732 -1027.043 
-487.8223 -2277.167 -1006.524 
-606.7720 -2274.634 -909.1031 
-437.4819 -2215.448 -1240.398 
-487.9246 -2214.679 -1270.012 
-575.5590 -2253.100 -1098.591 
-619.1434 -2254.338 -1016.077 
-624.5454 -2188.365 -932.2098 
-477.6286 -2129.274 -1311.919 
-522.7943 -2159.150 -1285.691 
-481.9985 -2208.805 -1154.905 
-561.4645 -2225.358 -1128.076 
-637.6938 -2187.823 -971.2941 
-455.1312 -2091.254 -1406.937 
-247.9842 -2032.803 -1839.420 
-368.7669 -2026.509 -1639.434 
-432.3656 -2033.957 -1593.722 
-471.0530 -2060.512 -1499.977 
-350.2043 -2043.115 -1869.268 
-455.5390 -2061.372 -1589.005 
-472.9212 -2055.188 -1570.858 
-547.0994 -2037.146 -1451.674 
-429.6790 -2033.388 -1819.796 
-380.3452 -2037.207 -1828.753 
-392.5963 -1905.276 -1912.952 
-397.3591 -1934.347 -1832.468 
-486.9834 -1921.976 -1791.135 
-647.8762 -1852.720 -1789.464 
-629.2907 -1809.827 -1735.734 
-312.0964 -2153.682 -1811.414 
-281.2337 -2137.699 -1752.312 
-360.2480 -2092.291 -1722.547 
-312.6577 -2083.984 -1633.695 
-368.9283 -2155.411 -1647.965 
-410.0653 -2079.432 -1507.252 
-444.7772 -2161.125 -1498.398 
-428.2501 -2099.790 -1410.852 
-328.7681 -2068.479 -1848.629 
-325.5705 -2041.226 -1769.203 
-367.6877 -2076.474 -1726.634 
-366.1742 -2074.523 -1626.760 
-418.6318 -2128.953 -1562.796 
-377.4182 -2035.093 -1584.464 
-483.3447 -2042.869 -1500.560 
-543.5672 -2073.808 -1465.142 
-412.3191 -1995.948 -1825.646 
-413.8547 -2035.124 -1779.130 
-378.5544 -2052.632 -1718.375 
-488.0614 -2069.277 -1639.944 
-529.9370 -2068.949 -1572.600 
-335.1440 -1998.519 -1859.560 
-468.8120 -2046.866 -1552.054 
-590.3669 -1985.569 -1457.163 
-382.1614 -1968.290 -1855.461 
-395.0941 -2044.460 -1780.860 
-460.3882 -1989.506 -1670.221 
-476.3838 -2008.606 -1647.602 
-541.1207 -2044.370 -1665.160 
-552.1027 -1996.865 -1514.658 
-574.7548 -2022.037 -1524.530 
-391.0605 -1950.259 -1860.397 
-383.0605 -1918.535 -1846.635 
-514.5792 -1922.542 -1788.244 
-495.6304 -1909.430 -1692.225 
-538.8624 -1987.428 -1644.172 
-561.9760 -1949.131 -1682.715 
-627.7008 -1950.227 -1623.778 
-627.4309 -1950.203 -1576.801 
-439.1595 -1978.159 -1823.326 
-488.8422 -1963.701 -1878.009 
-507.5981 -1935.240 -1914.753 
-521.8563 -1896.717 -1779.200 
-551.2657 -1914.418 -1718.839 
-598.6216 -1895.716 -1695.819 
-647.9997 -1906.029 -1691.228 
-664.4446 -1915.237 -1631.454 
-708.4125 -1964.725 -1604.147 
-550.7971 -1929.189 -1898.871 
-565.5938 -1898.450 -1847.078 
-578.3679 -1917.337 -1828.327 
-585.1706 -1892.412 -1789.659 
-640.4683 -1868.003 -1688.697 
-603.9081 -1853.487 -1639.208 
-655.9020 -1935.063 -1591.074 
-715.7308 -1866.800 -1532.296 
-567.4819 -1869.012 -1968.205 
-596.2745 -1878.793 -1948.201 
-634.7678 -1802.100 -1891.626 
-611.9224 -1863.751 -1742.607 
-665.7266 -1886.498 -1742.424 
-746.5878 -1803.236 -1689.609 
-618.9050 -1827.207 -1813.129 
-410.0031 -2162.386 -1564.388 
-382.2316 -2053.348 -1568.710 
-507.3188 -2046.567 -1520.820 
-286.8728 -2021.685 -1864.062 
-474.4758 -1997.057 -1597.559 
-448.9878 -2048.217 -1545.620 
-516.6452 -2039.669 -1492.537 
-380.5003 -1969.192 -1826.073 
-422.8085 -1996.429 -1816.319 
-513.3948 -2014.224 -1574.263 
-566.0993 -1994.287 -1497.189 
-427.3558 -1976.465 -1826.816 
-642.3268 -1877.650 -1842.340 
185.8764 -2166.867 -2449.366 
175.4282 -2117.626 -2369.612 
33.69607 -2099.492 -2352.861 
60.14816 -2056.037 -2341.719 
154.4478 -2053.686 -2488.182 
68.35056 -2034.206 -2473.430 
57.08115 -2092.961 -2461.543 
3.474909 -2000.592 -2397.242 
93.16856 -2018.165 -2638.827 
5.229186 -1969.133 -2468.637 
-1.685116 -2060.422 -2365.790 
15.62099 -1921.938 -2493.334 
-11.84164 -1952.416 -2458.276 
-113.1959 -1937.724 -2514.171 
-142.8848 -1848.117 -2470.694 
146.7577 -2164.571 -2407.898 
242.1744 -2143.043 -2470.373 
176.8109 -2122.841 -2467.703 
86.34889 -2073.696 -2370.586 
73.86381 -2091.824 -2312.987 
58.96855 -2130.188 -2298.356 
130.2529 -2113.413 -2484.308 
135.6924 -2068.435 -2529.244 
144.8970 -2052.227 -2393.053 
107.6496 -2102.903 -2333.078 
57.02625 -2015.273 -2470.523 
29.42721 -2086.016 -2391.413 
142.1931 -2025.050 -2508.839 
55.16618 -2031.584 -2482.396 
-36.10333 -2057.385 -2312.194 
-42.71037 -2035.822 -2381.454 
112.5053 -1990.744 -2573.309 
94.56410 -2035.186 -2495.019 
46.87291 -1976.576 -2432.464 
-31.29460 -1980.134 -2372.049 
-4.692145 -2005.476 -2542.402 
57.38600 -1933.354 -2580.396 
-28.22351 -1924.036 -2543.147 
-30.67392 -1928.250 -2426.002 
-72.88239 -1962.201 -2433.121 
-29.27037 -1943.721 -2621.308 
-42.52874 -1955.887 -2538.441 
-92.98439 -1907.465 -2477.362 
-72.24142 -1962.573 -2489.304 
-95.39886 -1958.086 -2446.125 
-165.8307 -1864.765 -2530.243 
-16.10295 -1913.970 -2718.928 
4.054088 -1923.290 -2634.869 
-100.2086 -1850.512 -2544.906 
-86.08990 -1931.581 -2521.392 
-151.1161 -1904.532 -2421.884 
-35.23429 -1806.029 -2725.210 
-107.3659 -1846.655 -2621.372 
-45.78142 -1844.189 -2556.234 
-103.1528 -1839.987 -2601.829 
-136.8072 -1847.861 -2539.556 
-193.6459 -1863.589 -2481.050 
181.1468 -2161.946 -2397.221 
108.3987 -2156.071 -2320.481 
135.9914 -2108.546 -2469.027 
10.85271 -2033.349 -2385.814 
47.63644 -2114.300 -2356.562 
33.54949 -2053.824 -2490.770 
18.63706 -1975.021 -2430.935 
-32.79702 -1961.690 -2460.508 
-25.69290 -1942.185 -2484.921 
-159.6934 -1890.836 -2471.111 
-97.42214 -1861.618 -2457.469 
-956.9313 -1865.709 -1145.584 
-962.1371 -1832.618 -1132.260 
-895.3356 -1734.047 -1103.271 
-934.5787 -1700.300 -1123.266 
-843.7211 -1650.377 -1063.369 
-822.5493 -1649.160 -1011.337 
-1047.453 -1846.770 -1185.258 
-1033.203 -1783.365 -1135.790 
-976.7361 -1719.580 -1083.852 
-947.1165 -1708.261 -1069.798 
-856.3563 -1604.364 -1053.472 
-880.6976 -1627.819 -1054.681 
-1108.077 -1800.402 -1184.585 
-1101.486 -1741.922 -1146.941 
-983.1609 -1710.112 -1174.169 
-998.8920 -1599.853 -1123.269 
-925.7437 -1568.745 -1106.257 
-952.6335 -1499.451 -1116.139 
-1055.995 -1600.361 -783.4577 
-1115.571 -1576.489 -782.9423 
-1116.095 -1782.752 -1209.046 
-1080.896 -1663.446 -1180.172 
-1031.680 -1685.901 -1155.040 
-1188.697 -1726.471 -1231.323 
-1100.714 -1627.201 -1242.913 
-1125.625 -1557.185 -1233.332 
-1172.374 -1613.555 -1299.991 
-1140.365 -1565.409 -1252.054 
-1185.060 -1621.551 -1300.414 
-1240.612 -1617.780 -1302.517 
-1295.424 -1609.401 -1338.380 
-1325.076 -1495.776 -1341.897 
-1089.044 -1778.345 -1163.471 
-1102.671 -1781.180 -1131.737 
-1068.343 -1549.269 -824.7747 
-1134.299 -1744.214 -1155.101 
-1087.270 -1719.894 -1180.022 
-1324.761 -1521.886 -1339.307 
-1270.518 -1573.455 -1336.242 
-1056.781 -1758.547 -1182.901 
-1039.583 -1598.092 -802.4645 
-1116.092 -1581.540 -872.3475 
-1164.116 -1728.782 -1170.816 
-671.0439 -1807.214 -1900.785 
-661.2988 -1722.780 -2056.693 
-653.7311 -1781.869 -2014.728 
-660.6995 -1693.188 -2020.819 
-793.0712 -1704.841 -1864.457 
-886.4948 -1620.984 -1918.119 
-880.4935 -1562.629 -1814.942 
-819.4168 -1578.016 -2027.383 
-923.0584 -1591.034 -2043.383 
-996.6904 -1593.102 -1829.930 
-701.7169 -1807.335 -1841.883 
-700.2329 -1791.289 -1766.624 
-722.8842 -1766.427 -1742.253 
-807.2620 -1769.224 -1623.536 
-525.2527 -1738.409 -2034.944 
-611.7809 -1824.536 -2007.792 
-571.8387 -1782.058 -1922.026 
-685.4928 -1830.103 -1849.446 
-579.1898 -1761.624 -2008.178 
-605.4136 -1797.396 -1935.766 
-642.4085 -1802.878 -1921.244 
-666.1453 -1744.292 -1873.211 
-761.1370 -1803.768 -1810.975 
-766.8570 -1770.320 -1720.133 
-797.6692 -1745.982 -1656.537 
-620.6279 -1793.165 -1981.051 
-660.3040 -1746.847 -1966.180 
-689.9667 -1710.727 -1902.032 
-777.1250 -1678.332 -1875.928 
-734.1392 -1679.337 -1783.184 
-767.6482 -1754.456 -1722.729 
-883.2297 -1715.029 -1691.244 
-616.2722 -1663.100 -2105.275 
-637.0433 -1757.530 -2052.946 
-797.0638 -1705.469 -1804.025 
-867.9285 -1674.630 -1776.394 
-834.1188 -1658.291 -1712.874 
-701.1415 -1674.688 -2146.883 
-688.1292 -1671.264 -2001.765 
-729.4877 -1705.080 -1975.791 
-776.2720 -1715.400 -1925.492 
-762.7741 -1689.418 -1913.336 
-845.5170 -1693.990 -1849.819 
-875.2527 -1637.986 -1776.331 
-884.9911 -1669.054 -1804.630 
-659.0463 -1641.645 -2084.792 
-702.9169 -1621.271 -2020.330 
-724.4606 -1673.918 -2061.028 
-793.1626 -1610.455 -1970.763 
-810.4905 -1623.254 -1895.092 
-944.1606 -1627.994 -1831.183 
-949.0561 -1660.706 -1833.842 
-789.1239 -1558.510 -2109.429 
-773.5895 -1555.465 -2048.100 
-772.6752 -1544.133 -2004.629 
-785.1531 -1610.387 -2023.691 
-879.6651 -1568.067 -1891.519 
-907.4538 -1572.051 -1862.837 
-876.8825 -1570.193 -2006.244 
-1019.711 -1578.328 -1816.666 
-818.4532 -1597.682 -2125.977 
-858.3086 -1549.994 -2152.304 
-824.3444 -1555.216 -2057.611 
-907.5442 -1585.411 -2001.446 
-976.3499 -1553.998 -1869.889 
-1006.345 -1562.528 -1823.227 
-777.0609 -1483.874 -2212.478 
-856.2059 -1485.558 -2168.949 
-915.5082 -1487.646 -2066.600 
-898.4451 -1481.826 -2056.591 
-945.6553 -1478.328 -1947.429 
-935.4988 -1498.135 -1880.207 
-1047.808 -1559.033 -1875.108 
-1034.656 -1543.859 -1860.234 
-1057.336 -1570.000 -1752.748 
-516.3292 -1867.984 -1981.738 
-533.6763 -1766.138 -1938.191 
