ply
format ascii 1.0
comment FreeCAD generated
element vertex 1596
property float x
property float y
property float z
end_header
-11899.06 341.7982 910.4279 
-11854.78 382.8773 923.0424 
-11823.54 429.3702 944.6738 
-11774.35 527.8756 997.1301 
-11760.63 198.6945 830.2175 
-11731.68 246.1406 853.4365 
-11683.20 140.3829 835.4301 
-11707.83 176.7715 793.7025 
-11650.21 186.1476 855.8487 
-11669.92 220.4995 810.7283 
-11515.72 334.8702 833.8030 
-11483.98 440.6176 898.3217 
-11437.31 480.7027 909.2807 
-11761.61 641.5131 1074.791 
-14600.78 1655.694 -304.3455 
-14362.87 1550.532 -454.5232 
-14614.16 1670.299 -332.4634 
-14634.38 1700.937 -380.0901 
-14590.77 1644.055 -282.8798 
-14549.38 1617.314 -318.4487 
-14564.33 1655.244 -362.8285 
-14585.04 1685.190 -410.7636 
-14502.96 1597.542 -350.9146 
-14519.01 1633.938 -395.9771 
-14453.77 1581.598 -381.6755 
-14473.39 1613.049 -428.9404 
-14403.03 1567.787 -411.4863 
-14419.52 1603.570 -456.8222 
-14380.57 1573.469 -493.8874 
-14358.34 1545.614 -445.0213 
-14309.23 1529.562 -475.8302 
-14321.27 1571.500 -518.4248 
-14609.01 1647.730 -273.1007 
-14571.24 1632.049 -299.2195 
-14444.04 1579.237 -387.1838 
-14454.84 1609.888 -438.4673 
-14394.98 1585.034 -479.8645 
-14362.83 1571.690 -502.0906 
-14261.23 1511.964 -507.3276 
-14215.62 1491.063 -540.2961 
-14169.42 1470.983 -572.8988 
-14119.54 1455.978 -603.2418 
-14078.84 1428.297 -639.2294 
-12763.49 3667.137 476.0882 
-12781.88 3700.300 429.5854 
-12716.53 3648.103 443.9508 
-12671.52 3626.366 410.6104 
-12624.86 3606.924 378.2917 
-12577.69 3588.182 346.2846 
-12531.01 3568.760 313.9751 
-13042.95 3784.512 670.3218 
-13060.87 3818.316 624.1048 
-13085.04 3843.484 574.0419 
-12997.14 3763.889 637.4773 
-13015.95 3796.465 590.7134 
-13035.79 3827.616 543.3151 
-12950.48 3744.439 605.1550 
-12969.92 3776.140 558.0017 
-12905.02 3723.336 572.0969 
-12921.91 3758.564 526.5139 
-12857.50 3705.068 540.3009 
-12875.05 3739.398 494.3181 
-12810.27 3686.413 508.3326 
-12828.71 3719.511 461.8015 
-12319.31 -325.9013 617.4930 
-12282.77 -286.6429 646.7644 
-12245.24 -249.2282 678.5714 
-12214.66 -198.8496 692.5486 
-12180.59 -154.9857 715.4859 
-12146.44 -111.2628 738.6169 
-12164.11 -225.4172 670.1257 
-12129.76 -182.0785 693.7853 
-12216.67 -381.9240 576.6187 
-12163.88 -412.6690 559.9411 
-12117.25 -431.9156 527.4492 
-12078.87 -396.0925 561.4453 
-12012.82 -304.4566 601.9448 
-11978.70 -260.6882 625.0132 
-12065.24 -461.2214 508.7925 
-12031.73 -416.3094 530.2881 
-11995.88 -375.7609 557.7850 
-11961.00 -333.4064 582.7982 
-11931.86 -280.3351 593.0720 
-11897.61 -236.8039 616.4669 
-12396.49 -242.9951 679.0513 
-12385.29 -311.4712 624.8962 
-12340.89 -334.0489 591.1814 
-12261.35 -366.6271 614.2835 
-12298.19 -358.9775 556.4192 
-12172.92 -244.3369 668.7426 
-12102.84 -147.4260 711.8995 
-12249.30 -375.3344 525.4745 
-12212.24 -382.6787 583.4744 
-12179.63 -421.5609 542.4989 
-12201.29 -392.9169 493.9839 
-12133.53 -441.7762 509.8356 
-12159.81 -419.5229 458.4750 
-12089.10 -464.3116 476.1395 
-12110.70 -435.5927 427.6581 
-12378.54 -291.6236 636.6998 
-12261.48 -366.3909 614.5033 
-12241.11 -315.3822 643.6565 
-12224.17 -262.9526 675.1758 
-12098.41 -136.7744 717.9174 
-12259.36 -367.2697 613.0393 
-12147.51 -235.3167 665.3994 
-12121.58 -186.6196 690.7019 
-12207.72 -388.7109 577.3268 
-12018.92 -314.8685 635.2338 
-12628.30 24.25204 963.6877 
-12405.34 -221.0350 698.4652 
-12373.03 -174.9865 719.3567 
-12347.14 -126.2686 744.6941 
-12314.16 -80.49812 765.1223 
-12275.92 -36.91304 781.9103 
-12969.31 105.3844 533.3124 
-12116.05 -60.51519 752.0867 
-12087.14 -7.021068 761.7789 
-12054.42 39.36055 781.2534 
-11927.47 232.2568 849.0153 
-11893.53 276.3665 871.6146 
-12065.62 -86.86701 729.3669 
-12034.12 -38.20358 745.7033 
-12002.90 10.98403 761.3185 
-11971.44 59.72134 777.5532 
-11942.48 113.1196 787.3773 
-11910.12 160.1821 805.9152 
-11877.39 206.5513 825.4067 
-11844.05 251.7838 846.4617 
-12017.30 -109.2701 701.2164 
-11955.21 -10.25470 731.5665 
-11920.84 33.05061 755.2720 
-11893.86 90.16238 759.9890 
-11860.36 135.0890 781.4644 
-11825.89 178.2036 805.4321 
-11793.21 224.6732 824.7855 
-11866.77 -0.08685836 741.8849 
-11873.89 13.19665 723.6157 
-11835.09 48.24511 758.6771 
-11840.23 57.84568 745.4730 
-11801.84 93.63853 779.5107 
-11810.91 110.5749 756.2174 
-11846.70 -77.21902 705.7406 
-11825.55 -9.248042 695.5222 
-11793.18 37.80053 714.0795 
-11749.38 63.51817 761.9739 
-11727.38 129.9115 753.9255 
-11694.33 175.6699 774.2572 
-11865.47 -189.3331 634.4434 
-11835.61 -137.6046 646.5639 
-11812.12 -73.99146 642.3392 
-11745.65 16.85570 683.9235 
-11678.10 105.7063 728.2535 
-11645.35 152.0317 747.8053 
-12206.14 20.23607 796.2750 
-12023.00 189.5252 848.0031 
-12093.80 -134.9180 717.4697 
-12046.12 -152.9518 685.7779 
-11990.01 -75.36765 720.3281 
-11981.52 -63.62243 725.5586 
-11894.04 -26.61516 718.3786 
-11790.07 117.1567 782.4040 
-11830.98 -23.38948 696.1542 
-11776.80 51.53543 729.5203 
-11736.23 107.6459 754.5077 
-11820.08 -92.28910 641.8109 
-11803.54 -69.41639 651.9966 
-11749.19 5.739486 685.4656 
-11711.85 57.38801 708.4660 
-11704.48 67.57570 713.0029 
-12167.75 37.10457 793.5797 
-12134.23 82.65174 813.6360 
-12083.08 120.8793 821.5009 
-12050.15 166.6706 841.9639 
-12000.58 205.5540 850.9207 
-11953.66 245.5386 861.7123 
-11928.54 294.5727 887.5761 
-11986.60 -64.26816 727.0695 
-12006.03 -115.6664 697.2672 
-11913.35 -35.21765 719.6485 
-11794.05 153.1065 810.0931 
-11760.63 198.6945 830.2175 
-11819.09 -41.05135 756.4612 
-11782.09 3.047890 774.1058 
-11748.94 48.75084 794.4216 
-11785.06 89.91258 760.6443 
-11716.25 94.63882 815.0455 
-11741.87 131.4445 774.0128 
-11683.20 140.3829 835.4301 
-11707.83 176.7715 793.7025 
-11820.26 -73.86654 655.2745 
-11814.41 -16.83243 694.4636 
-12562.51 115.2298 1004.203 
-12574.91 156.6781 961.3897 
-12249.65 11.64586 806.9830 
-12822.65 1015.042 -692.5126 
-12766.22 977.5051 -699.8482 
-12718.12 955.5048 -728.5527 
-12672.01 937.2285 -762.3789 
-12620.47 908.7982 -782.2401 
-12571.14 884.5063 -807.7929 
-12514.70 846.9554 -815.1099 
-12469.46 830.2836 -851.1429 
-12417.64 801.3497 -870.3115 
-12825.21 1039.096 -710.6655 
-12839.96 1077.291 -754.9269 
-12765.32 979.3571 -699.6586 
-12780.26 1017.289 -744.0375 
-12790.01 1062.398 -785.2200 
-12714.24 966.0271 -729.2554 
-12728.58 1004.780 -773.2686 
-12746.88 1038.070 -819.7144 
-12669.62 943.7618 -762.8314 
-12680.99 986.6210 -805.0159 
-12697.21 1022.787 -850.1809 
-12620.88 927.1790 -793.8768 
-12635.45 965.6279 -838.0253 
-12652.99 999.9702 -884.0026 
-12572.69 909.8575 -825.2510 
-12588.46 946.6317 -870.1454 
-12604.67 982.8160 -915.3024 
-12514.25 848.0963 -815.1448 
-12524.07 893.1141 -856.3680 
-12541.28 927.9069 -902.1447 
-12555.45 966.9106 -946.0461 
-12474.15 878.1707 -886.6833 
-12493.33 910.2465 -933.6699 
-12512.21 942.7238 -980.4778 
-12414.21 818.5046 -875.6440 
-12431.22 853.5771 -921.2961 
-12446.95 890.4133 -966.1628 
-12462.25 927.8405 -1010.766 
-12771.79 980.0901 -696.6033 
-12519.10 849.0122 -812.5910 
-12495.65 839.2778 -828.8047 
-12462.18 825.3825 -851.9488 
-12855.23 1114.778 -799.5037 
-12874.48 1146.746 -846.5383 
-12891.20 1182.216 -892.0138 
-12913.44 1210.053 -940.8880 
-12809.32 1094.283 -832.2915 
-12828.30 1126.632 -879.1566 
-12847.62 1158.512 -926.2303 
-12867.54 1189.560 -973.6744 
-12762.02 1075.730 -864.2142 
-12778.94 1110.915 -909.8162 
-12801.57 1138.215 -958.9296 
-12715.32 1056.340 -896.5096 
-12733.21 1090.187 -942.7075 
-12754.93 1118.740 -991.2629 
-12668.53 1037.065 -928.7543 
-12685.16 1072.660 -974.1736 
-12708.17 1099.438 -1023.519 
-12622.07 1017.347 -961.1956 
-12639.35 1052.045 -1007.014 
-12658.93 1083.559 -1054.251 
-12574.16 999.6193 -992.7509 
-12595.09 1029.267 -1040.818 
-12612.33 1064.031 -1086.608 
-12526.58 981.4504 -1024.503 
-12547.33 1011.342 -1072.462 
-12566.19 1043.861 -1119.251 
-12482.01 959.1118 -1058.111 
-12503.39 988.1393 -1106.455 
-13216.47 1228.408 -498.3457 
-13231.04 1266.859 -542.4930 
-13245.29 1305.740 -586.4495 
-13265.65 1336.175 -634.1664 
-13286.98 1365.273 -682.4794 
-13304.84 1399.171 -728.6543 
-13169.07 1209.986 -530.2100 
-13183.69 1248.359 -574.3923 
-13196.10 1289.786 -617.2147 
-13217.69 1318.535 -665.6827 
-13243.68 1341.174 -716.8719 
-13261.98 1374.459 -763.3197 
-13122.90 1189.862 -562.8323 
-13138.70 1226.610 -607.7384 
-13147.32 1273.282 -648.2250 
-13169.43 1301.300 -697.0185 
-13199.17 1318.767 -750.5110 
-13215.12 1355.292 -795.5162 
-13076.76 1169.698 -595.4728 
-13092.87 1206.012 -640.5721 
-13107.75 1244.029 -684.9126 
-13130.67 1270.925 -734.2061 
-13150.64 1301.895 -781.6853 
-13169.83 1333.954 -828.6792 
-13029.45 1151.153 -627.3917 
-13047.19 1185.213 -673.4948 
-13063.12 1221.775 -718.4836 
-13081.16 1255.414 -764.7743 
-13106.14 1279.457 -815.3380 
-13123.02 1314.719 -860.9057 
-12981.59 1133.363 -658.9747 
-12996.37 1171.507 -703.2590 
-13016.44 1202.348 -750.7955 
-13036.40 1233.337 -798.2662 
-13053.59 1268.164 -844.0275 
-12935.63 1112.943 -691.7289 
-12950.33 1151.213 -735.9572 
-12968.85 1184.195 -782.5401 
-12989.82 1213.776 -830.6377 
-13005.78 1250.310 -875.6392 
-12888.84 1093.676 -723.9697 
-12904.95 1129.985 -769.0714 
-12924.08 1162.130 -816.0268 
-12941.31 1196.890 -861.8183 
-12960.76 1228.583 -908.9752 
-12546.22 396.6205 -813.2607 
-12554.69 412.4179 -834.9873 
-12593.42 484.6835 -934.3772 
-12610.99 517.4739 -979.4753 
-12587.92 581.8693 -984.7759 
-12548.55 615.8479 -948.2430 
-12504.40 640.9009 -899.4346 
-12468.06 680.5491 -870.6993 
-12433.46 723.4136 -846.3877 
-12535.21 551.2616 -1001.642 
-12495.97 585.4888 -965.4514 
-12455.00 616.4884 -924.8214 
-12413.24 646.0038 -882.1500 
-12384.20 699.2640 -872.1361 
-12366.40 773.4948 -890.9637 
-12505.38 455.9211 -1012.744 
-12510.07 464.6765 -1024.786 
-12485.50 526.2571 -1026.215 
-12450.54 568.4724 -1001.010 
-12403.26 587.6934 -944.1811 
-12370.50 634.0109 -924.6182 
-12336.67 678.3257 -902.3013 
-12308.32 732.8674 -894.0496 
-12433.56 497.0945 -1045.069 
-12391.20 525.5015 -1000.873 
-12347.40 551.2126 -952.9697 
-12321.11 609.5939 -949.9989 
-12283.79 647.4127 -918.7476 
-12256.38 703.7095 -912.9100 
-12391.23 378.4308 -1024.093 
-12403.69 401.6767 -1056.064 
-12381.54 467.7854 -1063.721 
-12345.49 507.9641 -1035.716 
-12289.93 511.7399 -957.6437 
-12268.13 578.4908 -966.1841 
-12231.32 617.2447 -936.2188 
-12217.78 699.4369 -965.9962 
-12307.71 397.7802 -1026.403 
-12323.39 427.0346 -1066.638 
-12101.30 549.8414 -819.2137 
-12170.52 678.9990 -996.8494 
-12548.42 398.5407 -817.5818 
-12607.00 493.3014 -959.1948 
-12520.92 377.9761 -765.4690 
-12564.72 434.5918 -862.7982 
-12578.94 473.5186 -906.7338 
-12595.86 567.3021 -987.5111 
-12583.41 584.5156 -979.8455 
-12493.57 650.1594 -889.3418 
-12424.66 745.4557 -846.9039 
-12476.78 355.0333 -799.3466 
-12493.17 390.9678 -844.6149 
-12516.90 416.7404 -894.4084 
-12530.92 455.9450 -938.2205 
-12549.97 488.1946 -985.1295 
-12464.00 607.0820 -932.1859 
-12368.09 739.7194 -873.1189 
-12509.55 460.1193 -1021.293 
-12429.07 337.0446 -831.0182 
-12453.49 361.8669 -881.2349 
-12472.18 394.6059 -927.9261 
-12486.06 434.0106 -971.6490 
-12420.65 583.0607 -966.5438 
-12383.72 315.7813 -864.1478 
-12402.46 348.4564 -910.8676 
-12420.57 382.0147 -957.1939 
-12436.50 418.5806 -1002.181 
-12452.28 455.3377 -1047.083 
-12411.24 512.0986 -1021.806 
-12400.31 384.6450 -1040.954 
-12339.29 293.2478 -897.8432 
-12346.90 341.3209 -937.7059 
-12371.33 366.1238 -987.9313 
-12310.32 509.0864 -985.5370 
-12276.05 556.4768 -964.4329 
-12233.48 615.3542 -938.2133 
-12231.02 618.7593 -936.6968 
-12217.78 695.6594 -963.7219 
-12329.69 398.3362 -1058.518 
-12308.39 427.7906 -1045.401 
-12125.14 564.0212 -862.1921 
-12161.21 572.7241 -919.5873 
-12159.73 633.3716 -953.8502 
-12170.06 677.6794 -995.3895 
-12545.10 398.3632 -819.0038 
-12576.04 489.7041 -973.8760 
-12578.24 576.2474 -987.8729 
-12481.31 628.7670 -909.6740 
-12517.54 465.4195 -1014.325 
-12322.90 741.3914 -889.5082 
-12500.88 458.5032 -1025.844 
-12416.75 542.5002 -997.5532 
-12411.31 395.1492 -1029.031 
-12384.03 469.4521 -1063.415 
-12334.00 541.4410 -952.7881 
-12232.42 618.1951 -936.5609 
-12220.16 698.7323 -960.5616 
-12387.60 385.3065 -1045.425 
-12281.88 322.3814 -899.0302 
-12288.89 351.4552 -952.9415 
-12310.06 386.4098 -997.0577 
-12257.20 371.5980 -872.8621 
-12264.13 400.6410 -926.8246 
-12283.44 434.8233 -972.2272 
-12307.53 470.9868 -1014.330 
-12232.49 420.8026 -846.7139 
-12237.57 449.0749 -901.9602 
-12260.00 484.5526 -945.2049 
-12201.41 467.3627 -824.9704 
-12207.69 496.1324 -879.3882 
-12216.12 525.7989 -932.3124 
-12256.17 568.5927 -963.3716 
-12158.40 508.9667 -811.4819 
-12167.46 538.8930 -863.9734 
-12170.65 566.3848 -920.5195 
-12100.70 544.4746 -808.1472 
-12309.16 412.2003 -1056.438 
-12105.00 572.4272 -863.9257 
-12110.33 600.8050 -918.9965 
-12134.26 636.9072 -961.2013 
-12169.21 677.5825 -995.7888 
-11450.22 -461.8116 395.2674 
-11417.58 -415.2808 414.5367 
-11384.57 -369.4352 434.7485 
-11352.17 -322.4535 453.3976 
-11319.06 -276.7816 473.8480 
-11293.93 -216.2319 473.8366 
-11252.66 -185.8147 515.2677 
-11219.87 -139.5526 534.9066 
-11194.55 -79.34634 535.3673 
-11401.53 -484.9197 368.0866 
-11366.78 -442.3185 392.7604 
-11334.02 -396.0143 412.3413 
-11301.51 -349.2248 431.2548 
-11268.15 -304.0380 452.3725 
-11236.14 -256.3242 470.0147 
-11203.55 -209.6930 489.1460 
-11169.58 -165.6419 511.8258 
-11137.46 -118.1249 529.7387 
-11423.69 -375.8178 159.0718 
-11388.20 -334.5996 185.6478 
-11355.14 -288.8366 205.9732 
-11324.19 -239.1560 220.9102 
-11289.56 -196.3164 245.2563 
-11254.51 -154.2798 270.7065 
-11213.64 -123.0948 311.0816 
-11190.02 -59.73416 307.2041 
-11151.68 -23.83264 341.0924 
-11316.90 -269.3901 472.5393 
-11258.56 -188.7168 508.4653 
-11217.40 -131.7924 533.8152 
-11222.62 -131.1734 302.9571 
-11210.72 -114.7203 310.2841 
-11253.05 -242.7604 467.0224 
-11153.03 -105.8972 527.5608 
-11391.30 -482.6823 346.4440 
-11398.13 -453.6791 292.4147 
-11406.51 -424.0364 239.4514 
-11418.99 -392.6882 189.3283 
-11356.80 -437.5405 365.8254 
-11364.30 -408.2620 312.2546 
-11374.44 -377.8842 260.5150 
-11385.41 -347.1651 209.3446 
-11325.70 -390.9895 387.5532 
-11330.21 -362.9504 331.9184 
-11341.66 -332.0305 281.0821 
-11352.71 -301.2802 229.9634 
-11293.38 -344.9451 408.4378 
-11295.33 -317.9695 351.0313 
-11309.14 -286.0714 301.8245 
-11322.15 -254.5026 252.0692 
-11258.77 -299.8489 427.7432 
-11258.70 -273.7155 368.9342 
-11274.07 -241.1674 320.8096 
-11287.22 -209.5432 271.1461 
-11229.41 -252.5767 450.6724 
-11228.19 -226.9173 391.0738 
-11239.98 -195.8555 340.4738 
-11251.47 -164.9208 289.6625 
-11199.78 -205.4158 473.4167 
-11191.67 -182.6143 409.0577 
-11208.39 -149.5073 361.8644 
-11163.96 -160.8206 491.8871 
-11162.48 -135.2732 432.1022 
-11173.97 -104.3351 381.2962 
-11188.63 -72.08340 332.6782 
-11134.16 -113.7308 514.5129 
-11127.93 -90.15264 451.4481 
-11141.00 -58.56015 401.7319 
-11150.81 -28.32342 349.7578 
-11427.56 -362.9669 136.4956 
-11392.17 -318.1950 155.2605 
-11359.13 -272.4499 175.6466 
-11325.83 -226.8119 195.8540 
-11292.41 -181.2214 215.9822 
-11259.99 -135.2201 236.7954 
-11213.79 -121.1035 306.8374 
-11224.42 -90.52370 255.4342 
-11191.22 -44.84455 275.7106 
-11157.73 0.7164996 295.7899 
-12022.89 -472.4904 465.3287 
-11981.38 -442.4927 507.3367 
-11946.03 -401.0267 533.5717 
-11915.60 -350.3661 547.1612 
-11881.43 -306.6700 570.3291 
-11847.87 -261.8499 591.9512 
-11969.82 -503.7600 449.3727 
-11932.47 -466.0182 480.7298 
-11897.56 -423.6997 505.7924 
-11863.81 -379.2372 527.9064 
-11831.66 -331.7912 545.9168 
-11797.76 -287.6127 568.4214 
-11917.25 -534.1062 432.1466 
-11878.33 -499.2771 467.5096 
-11847.80 -448.7984 481.3492 
-11811.69 -408.7440 509.5257 
-11779.56 -361.2563 527.4789 
-11748.55 -311.6743 542.5519 
-11869.37 -555.6915 402.8713 
-11829.42 -522.7971 440.8952 
-11797.58 -474.7679 458.1039 
-11762.87 -432.0792 482.6574 
-11730.90 -384.2993 500.2086 
-11696.80 -340.4809 523.2085 
-11819.36 -581.2535 379.0653 
-11779.82 -547.5922 416.0346 
-11747.51 -500.4269 434.4312 
-11718.18 -447.7130 445.1965 
-11684.02 -404.0203 468.3692 
-11650.52 -359.0774 489.8225 
-11770.33 -604.9876 352.7455 
-11728.76 -575.1038 394.9100 
-11698.99 -523.2126 406.8071 
-11665.35 -478.5507 428.6466 
-11631.39 -434.4782 451.2970 
-11599.26 -386.9888 469.2478 
-11721.18 -628.9460 326.7341 
-11677.58 -602.8499 374.1079 
-11649.77 -547.2957 380.9671 
-11615.00 -504.7398 405.7031 
-11581.53 -459.7614 427.1075 
-11550.19 -410.7802 443.0067 
-11670.80 -655.1839 303.8576 
-11629.88 -624.0970 344.3676 
-11597.19 -577.6660 363.7742 
-11563.78 -532.5547 384.9958 
-11532.62 -483.2627 400.4674 
-11501.20 -434.4576 416.6088 
-11615.23 -691.1222 294.3227 
-11579.19 -650.9290 322.3083 
-11547.23 -603.1354 339.8407 
-11512.53 -560.4411 364.3865 
-11482.47 -509.0883 377.0240 
-12034.21 -472.3819 448.8850 
-12063.59 -454.4106 395.6172 
-12083.28 -423.0459 348.3141 
-11992.57 -498.7698 413.4731 
-12018.55 -476.1046 362.2959 
-12037.90 -444.2613 315.2057 
-11947.72 -520.7113 380.0414 
-11969.72 -492.5432 331.3145 
-11988.69 -460.1867 284.4532 
-11914.22 -532.9822 435.8475 
-11870.01 -555.8146 402.0191 
-11902.38 -541.9917 346.9039 
-11923.41 -512.4832 298.7742 
-11942.29 -479.9996 251.9691 
-11829.41 -583.6427 365.9659 
-11856.30 -562.2406 314.2261 
-11876.63 -531.7618 266.5283 
-11896.67 -500.8831 219.0085 
-11784.98 -606.1760 332.2706 
-11809.48 -581.4587 282.0070 
-11828.46 -549.1229 235.1364 
-11849.80 -520.0374 186.8183 
-11737.73 -624.8051 300.3138 
-11760.69 -597.9677 250.9945 
-11780.63 -566.9536 203.5350 
-11787.32 -517.6115 164.2378 
-11684.04 -609.1615 368.5511 
-11673.18 -594.1375 375.2417 
-11694.44 -648.9199 265.9145 
-11713.56 -616.7639 218.9635 
-11733.76 -586.1055 171.3456 
-11743.32 -540.7280 130.2828 
-11644.65 -638.6525 331.7577 
-11535.26 -487.3758 399.1252 
-11625.45 -696.0726 282.5264 
-11648.59 -669.4786 233.0983 
-11669.82 -640.2500 184.8439 
-11683.00 -599.8776 141.5522 
-11698.88 -563.2465 96.59389 
-11913.62 -477.5160 475.9417 
-11882.82 -430.8384 497.8806 
-11863.58 -379.3618 527.8132 
-11822.51 -336.9493 542.6484 
-11794.69 -289.0390 566.6410 
-11885.02 -548.8531 412.9297 
-11688.00 -597.3516 378.6794 
-11610.75 -569.9621 368.4921 
-11583.03 -522.0049 392.5627 
-11641.64 -676.0645 303.3823 
-11530.76 -484.2440 399.6501 
-11482.21 -444.9358 409.3150 
-12453.01 -262.5604 609.0674 
-12472.90 -231.4675 561.6431 
-12490.93 -197.8183 515.3573 
-12505.36 -159.1797 471.2932 
-12529.62 -134.1307 421.1775 
-12543.71 -95.02718 377.3203 
-12563.02 -63.13181 330.2534 
-12584.39 -34.10229 281.9104 
-12599.21 4.005242 237.6096 
-12408.01 -284.3058 575.7231 
-12424.63 -248.6951 530.3103 
-12447.10 -221.1759 481.2947 
-12461.44 -182.4133 437.2860 
-12481.26 -151.2312 389.9015 
-12498.68 -116.7312 343.9943 
-12517.41 -84.03291 297.2850 
-12535.00 -49.76432 251.2749 
-12555.31 -19.25916 203.5888 
-12356.63 -297.2251 546.3091 
-12379.43 -270.1613 497.0905 
-12392.38 -229.4766 453.9376 
-12415.83 -203.3196 404.3151 
-12430.95 -165.6300 359.8287 
-12453.37 -138.0418 310.8434 
-12469.66 -101.9807 265.6318 
-12484.56 -63.99334 221.2778 
-12508.56 -38.59075 171.3192 
-12313.21 -321.1537 511.9926 
-12338.58 -297.6440 461.1911 
-12352.76 -258.6545 417.2833 
-12368.81 -222.2620 372.2193 
-12389.98 -192.9395 324.0065 
-12405.26 -155.4805 279.4169 
-12421.96 -119.9830 233.9542 
-12447.00 -96.01746 183.3559 
-12472.28 -72.38866 132.6076 
-12267.41 -341.7869 479.1434 
-12285.25 -307.8735 432.9749 
-12306.92 -279.2365 384.4570 
-12321.73 -241.1323 340.1551 
-12343.78 -213.0274 291.4001 
-12362.43 -180.2299 244.7348 
-12379.07 -144.6432 199.3117 
-12403.89 -120.3722 148.8495 
-12424.83 -90.74515 100.7724 
-12227.13 -370.0616 442.8914 
-12242.95 -333.3460 397.9707 
-12260.97 -299.6722 351.6956 
-12280.04 -267.4544 304.7724 
-12298.12 -233.8638 258.4605 
-12316.17 -200.2259 212.1694 
-12333.79 -166.0085 166.1366 
-12355.42 -137.3176 117.6426 
-12372.59 -102.4734 71.88889 
-12178.43 -386.6840 411.8284 
-12196.05 -352.4618 365.7973 
-12213.96 -318.6408 319.5881 
-12231.62 -284.4642 273.5370 
-12249.79 -250.9968 227.1703 
-12269.73 -219.9763 179.7134 
-12286.73 -184.8976 134.0641 
-12307.79 -155.4228 85.91925 
-12322.42 -117.0672 41.72930 
-12129.07 -402.4010 381.1684 
-12148.73 -370.9894 333.8859 
-12166.13 -336.4664 287.9890 
-12185.92 -305.2311 240.6282 
-12203.37 -270.7763 194.7012 
-12219.11 -233.9553 149.8276 
-12239.33 -203.3168 102.2009 
-12265.19 -180.4856 51.09756 
-12276.45 -137.4675 8.983768 
-12101.81 -390.0801 301.7235 
-12118.98 -355.2311 255.9721 
-12140.33 -326.1603 207.6473 
-12159.49 -294.0686 160.6680 
-12171.17 -251.6259 118.2977 
-12193.08 -223.3325 69.62672 
-12215.69 -196.0121 20.52260 
-12233.16 -161.5688 -25.40975 
-12930.85 572.2841 -583.1588 
-12952.50 612.6916 -638.7329 
-12982.31 775.7546 -779.7352 
-12942.79 809.4457 -742.8069 
-12907.86 851.7083 -717.6673 
-12871.77 891.8223 -689.5728 
-12840.89 941.6342 -674.8162 
-12930.19 746.2604 -798.1330 
-12893.19 784.6603 -767.6809 
-12857.81 826.0752 -741.3755 
-12822.95 868.4723 -716.4210 
-12790.83 915.9910 -698.5104 
-12833.91 526.9030 -638.6691 
-12863.51 582.1472 -714.6487 
-12884.20 620.7540 -767.7462 
-12921.26 689.9102 -862.8596 
-12880.07 720.4772 -821.6348 
-12842.37 757.5792 -789.3976 
-12799.82 785.6208 -744.6994 
-12765.25 828.5527 -720.4803 
-12743.92 896.1988 -730.2518 
-12795.68 523.3333 -692.7219 
-12832.13 591.3407 -786.2554 
-12830.30 695.3787 -846.0781 
-12792.04 731.4296 -812.3953 
-12751.00 762.2878 -771.5709 
-12718.07 808.2753 -751.5543 
-12685.75 855.4070 -733.1116 
-12747.06 500.3614 -720.0901 
-12809.26 616.4249 -879.7172 
-12783.46 675.7142 -877.9951 
-12743.70 708.9669 -840.4639 
-12704.43 743.1376 -804.1953 
-12670.24 786.7933 -780.9717 
-12639.00 835.9282 -765.2839 
-12716.21 510.5442 -793.0573 
-12761.20 594.5046 -908.5316 
-12735.97 654.8561 -908.2705 
-12693.45 682.9637 -863.6630 
-12656.95 722.2975 -834.4954 
-12624.51 769.2063 -815.7460 
-12591.25 814.5876 -794.8958 
-12643.39 442.4236 -758.3307 
-12668.68 489.6107 -823.2291 
-12707.14 561.3735 -921.9275 
-12714.39 574.9062 -940.5396 
-12687.28 631.7631 -935.4720 
-12646.27 662.6739 -894.7200 
-12608.82 700.2368 -863.1168 
-12568.02 731.5502 -822.9185 
-12539.74 786.2341 -814.8625 
-12659.51 540.2563 -951.8464 
-12668.84 557.6623 -975.7856 
-12639.54 610.4416 -965.1102 
-12597.01 638.5205 -920.4633 
-12563.21 682.8984 -898.2330 
-12515.69 701.6672 -840.7816 
-12492.31 765.4767 -845.2764 
-12943.60 582.4191 -607.6818 
-12898.54 527.5530 -509.5735 
-12915.16 563.1535 -554.9904 
-12956.16 623.6508 -650.5910 
-12974.62 656.7131 -697.1382 
-12992.47 690.6163 -743.3110 
-13007.74 728.0969 -787.8907 
-12959.68 794.5556 -758.2949 
-12823.47 982.9127 -674.4146 
-12851.15 509.1064 -541.4489 
-12868.19 544.1323 -587.1217 
-12892.57 569.0204 -637.3092 
-12910.62 602.6462 -683.6056 
-12927.08 638.4707 -728.9226 
-12945.21 671.9957 -775.2639 
-12851.88 541.3193 -673.3058 
-12904.00 645.0213 -810.9370 
-12923.35 676.8542 -858.0317 
-12804.65 489.4431 -573.8661 
-12824.02 521.2540 -620.9707 
-12863.81 583.4082 -715.8334 
-12881.57 617.4423 -761.9478 
-12905.67 701.2993 -847.1457 
-12808.11 777.6264 -751.8844 
-12754.48 851.7795 -718.8621 
-12799.87 529.2603 -702.3367 
-12819.61 560.5532 -749.6719 
-12757.47 470.7129 -605.8677 
-12778.59 500.1008 -654.0514 
-12834.75 598.2169 -794.1700 
-12849.33 636.6467 -838.3270 
-12777.06 736.5792 -793.8245 
-12681.10 869.2817 -734.7286 
-12753.94 508.8058 -735.1063 
-12772.89 541.1950 -781.9532 
-12789.79 576.4133 -827.5403 
-12808.89 608.5905 -874.4818 
-12711.91 449.7511 -638.8632 
-12730.61 482.4821 -685.5580 
-12732.67 713.9941 -827.5428 
-12622.51 866.3323 -759.7026 
-12725.75 522.4083 -813.9800 
-12743.19 556.8868 -859.8966 
-12761.77 589.7816 -906.5184 
-12661.45 435.5495 -668.8482 
-12682.20 465.4534 -716.8019 
-12703.72 494.2889 -765.2316 
-12695.85 680.9476 -865.9199 
-12569.53 855.6288 -788.1297 
-12661.76 468.3368 -800.4493 
-12714.69 570.9122 -938.5822 
-12615.22 415.5147 -701.4308 
-12640.55 439.0689 -752.2123 
-12675.57 507.8259 -844.1346 
-12693.03 542.2828 -890.0608 
-12652.41 657.0458 -900.2246 
-12668.55 550.7488 -971.2220 
-12565.90 399.7474 -732.1130 
-12590.48 424.3363 -782.4338 
-12612.07 453.0849 -830.9020 
-12626.78 491.3255 -875.1432 
-12646.07 523.2488 -922.1978 
-12615.48 624.1342 -938.5416 
-12520.31 697.1517 -844.7542 
-12512.83 707.5026 -840.1447 
-12469.51 826.0040 -848.6437 
-12893.58 569.2087 -636.7789 
-12943.33 753.9921 -794.1569 
-12892.05 568.5746 -637.8351 
-12933.65 664.3430 -785.3329 
-12947.93 696.4356 -834.2160 
-12809.88 791.3445 -741.2205 
-12789.50 842.3473 -712.0771 
-12860.12 581.4847 -718.6688 
-12876.28 640.5257 -825.0031 
-12903.34 677.9220 -865.0524 
-12704.93 866.6999 -727.3227 
-12821.40 591.5739 -804.2007 
-12823.26 618.5125 -861.6686 
-12736.35 503.9303 -745.5072 
-12702.80 687.4266 -858.4994 
-12682.70 481.6578 -782.6044 
-12702.89 516.2065 -827.3967 
-12727.61 552.6348 -869.0580 
-12619.25 455.3169 -826.4780 
-12528.82 707.9542 -833.5865 
-12552.45 401.4153 -813.9202 
-12631.93 512.9092 -935.2254 
-12654.05 548.2611 -978.6799 
-12453.78 736.2629 -842.2429 
-11702.09 8.176749 -251.1271 
-11687.54 88.45810 -278.2763 
-11777.69 256.6919 -509.6552 
-11657.17 139.2466 -264.8628 
-11735.66 285.7103 -466.3004 
-11653.04 -15.58808 -277.4046 
-11631.48 51.61229 -286.5632 
-11606.48 112.4170 -286.9254 
-11591.52 191.9288 -313.0161 
-11605.05 -37.39608 -306.3735 
-11574.62 13.27232 -292.7949 
-11553.46 81.22040 -302.9817 
-11529.68 144.3057 -306.4804 
-11537.46 266.2691 -390.9566 
-11558.18 304.9232 -444.1194 
-11555.45 -62.19809 -331.2248 
-11527.65 -6.627601 -324.3882 
-11496.23 42.19058 -308.2647 
-11478.40 116.3588 -327.0064 
-11474.13 215.8470 -380.5716 
-11513.57 289.4403 -481.7875 
-11508.55 -81.94659 -363.0262 
-11474.68 -37.71246 -340.5983 
-11446.43 17.01839 -332.6069 
-11417.15 69.82318 -321.9664 
-11410.67 165.1873 -369.8595 
-11462.26 -100.5733 -396.3707 
-11428.05 -56.96236 -373.0854 
-11398.02 -5.554190 -360.5244 
-11369.60 48.85098 -352.0850 
-11365.20 148.0839 -405.2990 
-11402.94 -143.5041 -396.2886 
-11376.50 -85.40388 -392.9310 
-11347.93 -31.26587 -384.1244 
-11323.11 29.85738 -384.9247 
-11327.68 145.8456 -461.1830 
-11356.74 -161.9635 -429.8630 
-11327.24 -109.5659 -418.6625 
-11304.19 -45.12955 -424.0195 
-11289.75 35.37388 -451.4742 
-11306.05 173.2288 -557.8066 
-11308.98 -183.3297 -459.4397 
-11279.11 -131.6178 -447.2958 
-11289.41 -4.950538 -538.2418 
-11259.05 45.83908 -524.8298 
-11288.05 207.4080 -663.7771 
-11696.40 26.10111 -253.6620 
-11781.63 259.8037 -517.2130 
-11657.21 138.8928 -264.7037 
-11664.71 187.1135 -304.5006 
-11671.17 236.7685 -343.6587 
-11683.93 277.7206 -386.6924 
-11707.20 304.1326 -436.2014 
-11632.80 30.08131 -275.5502 
-11589.71 148.2713 -284.1878 
-11591.05 205.0096 -320.1917 
-11600.07 251.1285 -360.9244 
-11610.49 295.3040 -402.5228 
-11617.72 343.9002 -442.1524 
-11662.76 340.2030 -505.0695 
-11557.96 49.61234 -290.5131 
-11525.51 153.0734 -305.7099 
-11525.92 211.0991 -341.1406 
-11535.49 256.4613 -382.2102 
-11577.71 315.2631 -478.5658 
-11602.97 338.9163 -529.3032 
-11548.23 297.4276 -425.2377 
-11488.47 61.73300 -308.7762 
-11463.92 154.2683 -328.8385 
-11470.37 203.9504 -367.9845 
-11525.85 302.9991 -507.6880 
-11547.17 332.1075 -555.9958 
-11484.75 242.6465 -412.0229 
-11502.61 276.5512 -458.1952 
-11409.01 87.64039 -320.8995 
-11408.83 146.4902 -355.9629 
-11417.81 192.6532 -396.6761 
-11436.17 225.8670 -443.1559 
-11449.79 265.6163 -486.7254 
-11475.17 289.1113 -537.5331 
-11493.94 321.7463 -584.2707 
-11366.04 63.08875 -355.4937 
-11362.25 126.9267 -388.3358 
-11372.59 171.2187 -429.8821 
-11384.20 213.7543 -472.2106 
-11399.69 250.9340 -516.9246 
-11422.80 277.5645 -566.3359 
-11444.52 306.1225 -614.8890 
-11382.60 -102.3795 -391.5708 
-11321.55 40.64579 -389.1487 
-11326.94 91.77883 -427.6485 
-11328.06 148.8290 -463.5134 
-11342.18 187.8922 -507.3884 
-11355.33 228.2945 -550.6669 
-11373.22 262.1480 -596.8618 
-11398.28 286.0889 -647.4711 
-11327.45 -110.0848 -418.6627 
-11298.40 -11.31213 -435.9475 
-11289.51 59.56587 -465.6544 
-11303.10 99.37114 -509.1990 
-11304.57 155.9236 -545.2855 
-11311.81 204.5130 -584.9180 
-11327.97 240.7506 -630.0514 
-11347.44 272.4214 -677.2183 
-11277.64 -125.1672 -449.0401 
-11277.88 -66.90696 -484.3659 
-11262.98 70.87959 -545.5476 
-11272.80 115.8851 -586.7763 
-11283.02 160.3501 -628.2456 
-11288.49 211.3851 -666.7892 
-11305.58 246.3384 -712.4943 
-11777.08 260.2565 -518.6556 
-11656.98 139.0298 -264.6952 
-11725.64 298.3652 -510.9890 
-11602.21 201.9226 -318.0847 
-11642.57 244.8420 -348.9344 
-11671.38 282.9701 -387.7650 
-11688.69 316.3231 -434.5488 
-11678.56 338.2819 -500.3108 
-11613.05 35.16181 -279.5542 
-11545.35 152.1479 -298.6529 
-11569.84 300.2770 -414.7458 
-11522.86 57.18072 -298.6868 
-11518.32 252.7186 -391.6227 
-11429.21 77.76391 -320.2107 
-11462.17 203.2436 -371.6919 
-11491.08 293.7423 -527.9669 
-11498.36 322.9296 -581.6892 
-11431.29 -125.9255 -389.7183 
-11311.77 29.00748 -401.4199 
-11327.24 147.2251 -464.9966 
-11320.51 170.5955 -528.4076 
-11325.00 -110.5930 -419.9877 
-11291.64 -38.81392 -458.5764 
-11297.29 -10.30123 -513.4221 
-11265.45 35.93996 -492.2098 
-11300.94 188.6348 -600.6982 
-11989.61 652.1367 -1053.527 
-11967.33 718.0133 -1060.865 
-11971.56 833.3397 -1136.213 
-11925.61 600.4744 -1041.436 
-11903.97 667.5228 -1050.385 
-11900.21 767.9564 -1105.251 
-11907.46 888.9260 -1188.360 
-11869.06 562.6970 -1048.441 
-11846.38 627.8245 -1054.749 
-11839.74 722.8771 -1102.214 
-11824.66 802.1863 -1128.026 
-11842.21 942.3726 -1237.565 
-11791.04 484.8761 -1000.374 
-11790.99 592.2292 -1064.756 
-11784.78 688.0796 -1113.318 
-11778.89 784.5280 -1162.702 
-11772.55 880.1539 -1210.956 
-11717.38 522.6167 -1027.977 
-11732.04 657.4200 -1130.113 
-11726.22 754.0096 -1179.691 
-11716.07 842.5153 -1218.152 
-11682.53 632.7830 -1155.191 
-11670.13 717.0930 -1187.881 
-11656.83 799.7319 -1218.273 
-11647.70 890.1227 -1259.326 
-11626.12 595.2924 -1162.591 
-11615.11 682.1889 -1198.838 
-11598.56 758.7474 -1220.867 
-11587.75 846.0248 -1257.638 
-11568.34 662.6694 -1230.955 
-11548.91 733.8541 -1245.593 
-11530.70 807.3131 -1263.359 
-11513.44 627.9874 -1242.217 
-11496.11 703.0870 -1262.240 
-11478.35 777.3957 -1281.175 
-11939.20 510.6456 -895.6729 
-11954.19 548.5040 -940.0844 
-11975.04 578.2617 -988.1032 
-11993.99 610.6510 -1034.950 
-11972.51 698.9498 -1056.899 
-11963.64 769.7982 -1086.619 
-11969.55 820.2222 -1125.435 
-11974.52 871.9507 -1163.670 
-11988.08 911.7922 -1207.198 
-11889.09 495.9677 -925.8698 
-11907.77 528.7195 -972.5554 
-11921.01 569.0014 -1015.888 
-11916.37 634.0226 -1048.203 
-11900.95 713.9385 -1073.885 
-11899.61 774.3725 -1108.243 
-11899.74 832.7903 -1143.499 
-11905.87 882.9114 -1182.449 
-11916.94 926.1862 -1224.449 
-11836.82 484.2717 -954.7390 
-11854.37 518.6007 -1000.722 
-11869.79 555.8690 -1045.396 
-11844.23 649.8047 -1064.835 
-11841.08 712.7604 -1098.070 
-11824.35 794.4869 -1122.946 
-11830.35 844.7772 -1161.821 
-11836.52 894.8384 -1200.798 
-11842.57 945.0640 -1239.703 
-11785.40 471.4129 -984.1260 
-11798.15 512.3674 -1027.159 
-11796.87 572.7361 -1061.546 
-11792.01 638.0514 -1093.730 
-11783.94 707.7931 -1123.943 
-11780.37 771.3239 -1156.922 
-11776.71 834.9756 -1189.847 
-11769.52 903.5198 -1220.593 
-11776.98 951.7934 -1260.366 
-11714.67 485.2422 -1001.628 
-11720.87 535.2652 -1040.622 
-11729.54 581.8670 -1081.140 
-11735.68 631.9672 -1120.100 
-11729.27 699.4294 -1151.328 
-11725.02 763.8953 -1183.891 
-11716.39 834.4308 -1213.750 
-11716.27 893.1869 -1248.855 
-11725.55 938.9481 -1289.747 
-11643.40 499.8387 -1018.789 
-11661.46 533.4529 -1065.090 
-11674.84 573.5410 -1108.509 
-11687.20 615.0463 -1151.296 
-11672.56 693.8828 -1177.459 
-11658.26 772.2454 -1203.833 
-11651.07 840.7834 -1234.582 
-11649.35 901.7468 -1268.704 
-11668.71 933.5718 -1315.802 
-11579.33 504.4604 -1040.391 
-11600.16 534.2457 -1088.398 
-11621.29 563.6223 -1136.586 
-11629.88 610.3411 -1177.052 
-11612.57 692.8707 -1201.570 
-11591.81 780.1701 -1223.964 
-11587.77 844.3439 -1256.657 
-11594.14 894.1297 -1295.756 
-11615.81 922.7520 -1344.281 
-11526.20 493.9669 -1068.725 
-11545.48 525.8907 -1115.779 
-11565.96 556.1609 -1163.570 
-11580.29 594.9355 -1207.573 
-11566.51 672.5815 -1234.266 
-11534.75 775.1000 -1249.883 
-11529.05 841.5741 -1281.551 
-11545.26 877.7468 -1326.713 
-11474.45 481.5595 -1097.911 
-11492.32 515.4393 -1144.094 
-11512.35 546.3264 -1191.610 
-11521.69 592.0074 -1232.538 
-11499.62 681.1136 -1254.127 
-11482.59 763.2552 -1278.818 
-11479.62 825.9547 -1312.167 
-11496.30 861.4874 -1357.614 
-11944.84 617.7267 -1048.956 
-11955.30 707.6966 -1057.245 
-11908.30 773.8119 -1105.268 
-11959.01 821.0342 -1128.951 
-11936.19 923.3532 -1219.008 
-11877.33 649.1608 -1052.406 
-11864.84 841.4009 -1150.835 
-11903.31 883.5367 -1182.990 
-11844.57 944.7785 -1239.130 
-11814.21 511.1594 -1021.781 
-11858.78 555.8311 -1049.713 
-11827.30 714.0208 -1102.519 
-11804.11 901.8154 -1208.352 
-11779.13 470.4335 -987.2780 
-11727.86 534.7754 -1038.254 
-11774.45 580.2817 -1064.795 
-11751.40 768.1353 -1170.530 
-11693.77 494.4541 -1003.077 
-11705.73 834.8041 -1217.630 
-11660.23 901.5413 -1264.616 
-11679.78 935.8241 -1309.852 
-11647.02 613.0042 -1168.437 
-11633.67 693.0936 -1193.183 
-11626.71 775.8325 -1213.517 
-11574.06 504.2189 -1042.620 
-11579.69 532.7204 -1097.484 
-11578.32 558.3192 -1157.183 
-11585.64 844.4094 -1257.439 
-12050.86 320.1916 -385.4419 
-12085.11 451.8611 -625.4949 
-12043.07 318.1221 -372.9390 
-11980.27 320.9957 -395.3199 
-12009.95 338.5367 -448.7794 
-12032.83 365.5005 -498.0424 
-12052.66 396.6609 -545.4367 
-12070.09 431.1584 -591.3448 
-11933.64 301.5033 -427.6610 
-11955.12 330.3986 -476.0641 
-11974.49 362.2033 -523.1713 
-11996.48 390.3881 -571.8907 
-12014.69 423.7923 -618.2856 
-12033.79 455.9743 -665.2250 
-12050.78 491.0642 -710.8693 
-12071.44 521.0927 -758.7678 
-12096.71 544.7444 -809.5059 
-11883.45 286.9442 -457.8052 
-11907.21 312.6803 -507.6151 
-11927.33 343.4472 -555.1846 
-11944.81 377.8607 -601.1302 
-11962.13 412.5043 -646.9732 
-11985.79 438.3800 -696.7209 
-12001.67 475.0135 -741.6778 
-12019.19 509.3757 -787.6462 
-12037.63 542.4734 -834.1779 
-11839.51 263.7299 -491.8037 
-11858.11 296.6034 -538.4352 
-11876.71 329.4721 -585.0687 
-11895.47 362.1256 -631.7980 
-11911.55 398.4835 -676.8777 
-11929.54 432.1899 -723.1381 
-11949.32 463.4256 -770.4988 
-11969.18 494.5616 -817.9040 
-11986.12 529.7308 -863.5131 
-11810.07 279.0653 -569.9060 
-11826.81 314.5057 -615.3942 
-11844.34 348.8518 -661.3698 
-11865.11 378.7253 -709.3372 
-11878.47 418.8437 -752.7422 
-11898.29 450.0329 -800.1235 
-11918.62 480.4995 -847.8268 
-12048.43 313.4536 -374.2428 
-12039.21 335.7882 -439.3789 
-12045.42 364.5307 -493.8419 
-12058.90 396.2939 -543.2739 
-12078.21 430.4764 -588.6759 
-12087.29 460.4111 -641.1534 
-12096.34 490.3351 -693.6485 
-12104.83 520.0236 -746.5361 
-11789.10 -502.1925 152.4047 
-11853.10 -382.7805 -11.82774 
-11749.04 -509.1862 103.0611 
-11801.01 -412.2210 -30.29919 
-11721.79 -492.2821 20.84965 
-11746.93 -445.3785 -43.65890 
-12054.21 -408.2290 269.9810 
-12073.46 -376.2495 222.9513 
-12091.59 -342.7393 176.6036 
-12111.53 -311.7114 129.1505 
-12127.13 -274.6996 84.36176 
-12145.30 -241.2356 37.99341 
-12165.10 -210.0221 -9.377003 
-12182.80 -175.9105 -55.45719 
-12008.12 -428.4717 237.3058 
-12026.53 -395.3317 190.7930 
-12043.02 -359.5457 145.4587 
-12062.50 -327.8918 98.28427 
-12078.10 -290.8649 53.50233 
-12101.29 -264.3496 4.039566 
-12116.71 -227.0803 -40.63416 
-12135.89 -195.0053 -87.62123 
-11959.69 -445.4700 206.0752 
-11979.88 -414.7991 158.4630 
-11998.25 -381.6082 111.9732 
-12015.87 -347.3702 65.94934 
-12033.23 -312.7942 20.07596 
-12052.70 -281.1165 -27.08774 
-12071.69 -248.7975 -73.96597 
-12089.03 -214.1786 -119.8203 
-11913.46 -465.5121 173.4893 
-11930.29 -430.1912 127.9479 
-11950.28 -399.2401 80.46051 
-11970.31 -368.3445 32.94839 
-11986.34 -331.9199 -12.10169 
-12004.91 -299.0138 -58.71861 
-12023.11 -265.5788 -105.0999 
-12040.74 -231.3737 -151.1383 
-11861.13 -477.1096 144.6641 
-11872.30 -433.9636 102.6074 
-11892.98 -403.9728 54.69228 
-11918.90 -381.2203 3.553735 
-11940.22 -352.1130 -44.75490 
-11958.77 -319.1800 -91.35970 
-11976.08 -284.5180 -137.1946 
-11993.96 -250.6578 -183.3866 
-11856.96 -379.5454 -19.36100 
-11892.07 -369.5013 -76.15900 
-11911.07 -337.1841 -123.0382 
-11928.92 -303.2735 -169.2076 
-11944.13 -265.7173 -213.7536 
-11791.61 -464.9512 126.4179 
-11815.90 -439.9425 76.28407 
-11833.49 -405.6719 30.27492 
-11815.07 -405.5829 -54.61663 
-11845.09 -388.5080 -108.2839 
-11864.07 -356.1586 -155.1486 
-11884.46 -325.7573 -202.8806 
-11888.52 -272.7892 -240.5635 
-11752.14 -494.3382 89.67042 
-11770.99 -461.8076 42.88639 
-11785.88 -423.8056 -1.461036 
-11709.83 -519.7965 54.67242 
-11772.00 -430.0004 -89.15109 
-11799.51 -409.4417 -141.2667 
-11816.08 -373.7625 -186.6486 
-11833.35 -339.0548 -232.4632 
-11844.47 -295.8488 -274.4933 
-11725.80 -483.2917 9.658363 
-11743.11 -448.6382 -36.18036 
-11818.46 -471.8226 131.8847 
-11839.94 -436.7426 87.97745 
-11855.58 -404.0821 40.04028 
-11722.48 -511.6715 65.51200 
-13176.23 623.6157 -299.9827 
-13123.83 419.0369 121.5530 
-13144.59 448.9260 73.59254 
-13161.63 483.9510 27.91919 
-13181.07 515.6646 -19.22879 
-13198.64 549.9526 -65.23005 
-13219.47 579.7449 -113.2336 
-13238.06 612.6250 -159.8621 
-13255.39 647.2534 -205.7120 
-13275.52 678.0143 -253.2841 
-13076.69 400.2598 89.53036 
-13095.10 433.3851 43.01104 
-13113.29 466.8281 -3.366636 
-13131.11 500.7817 -49.51696 
-13149.08 534.5250 -95.76104 
-13168.08 566.8358 -142.6431 
-13187.82 598.1329 -189.9763 
-13205.39 632.4205 -235.9781 
-13229.37 657.8521 -285.9236 
-13187.07 632.3791 -320.9279 
-13030.67 379.9225 56.81305 
-13048.08 414.4454 10.91611 
-13066.66 447.3366 -35.70745 
-13084.49 481.2766 -81.86382 
-13102.68 514.7122 -128.2448 
-13121.58 547.1733 -175.0599 
-13141.02 578.8714 -222.2145 
-13158.93 612.6996 -268.4209 
-12982.56 362.4819 25.38571 
-13000.70 395.9930 -20.96194 
-13019.96 427.9408 -68.00536 
-13038.37 461.0737 -114.5213 
-13056.03 495.2465 -160.5740 
-13075.05 527.5334 -207.4668 
-13092.68 561.7563 -253.4970 
-13112.38 593.1002 -300.8096 
-13129.99 627.3474 -346.8293 
-12935.96 342.9467 -6.974561 
-12953.67 377.0523 -53.05732 
-12972.18 410.0428 -99.63641 
-12991.07 442.5229 -146.4432 
-13008.91 476.4404 -192.6095 
-13028.48 507.9750 -239.8371 
-13046.49 541.6505 -286.1114 
-13064.68 575.0955 -332.4883 
-13082.57 608.9501 -378.6828 
-12889.25 323.5751 -39.26181 
-12907.91 356.3646 -85.93082 
-12925.96 389.9968 -132.2241 
-12943.63 424.1471 -178.2870 
-12963.71 454.9780 -225.8279 
-12981.28 489.2650 -271.8299 
-12999.02 523.3234 -317.9335 
-13017.99 555.6894 -364.7909 
-13035.92 589.4794 -411.0143 
-12843.12 303.3900 -71.91153 
-12861.05 337.1837 -118.1330 
-12879.85 369.7783 -164.8885 
-12897.57 403.8765 -210.9747 
-12917.27 435.2267 -258.2842 
-12935.35 468.8154 -304.5972 
-12952.48 503.7127 -350.3273 
-12971.09 536.5651 -396.9681 
-12988.66 570.8707 -442.9617 
-12796.29 284.1768 -104.1282 
-12814.76 317.2355 -150.6771 
-12833.29 350.2026 -197.2668 
-12852.22 382.6087 -244.1064 
-12870.24 416.2861 -290.3796 
-12888.43 449.7260 -336.7588 
-12906.64 483.1344 -383.1519 
-12924.79 516.6339 -429.5047 
-12941.39 552.2692 -474.9061 
-12750.52 263.4935 -136.9996 
-12767.99 297.9354 -182.9326 
-12786.19 331.3601 -229.3184 
-12805.66 363.0279 -276.4868 
-12823.12 397.4677 -322.4206 
-12840.42 432.1390 -368.2514 
-12859.79 463.9430 -415.3590 
-12877.21 498.4557 -461.2605 
-13223.77 653.9644 -290.9355 
-13164.52 629.3689 -331.9019 
-11568.45 -710.6716 262.2473 
-11530.83 -673.4199 294.2786 
-11498.93 -625.4953 311.6309 
-11466.32 -578.9045 330.8178 
-11433.60 -532.5185 350.2861 
-11553.43 -563.4935 84.12991 
-11521.40 -515.8140 101.8193 
-11490.69 -465.6745 116.1254 
-11457.25 -420.6430 137.4568 
-11576.72 -712.6605 251.4785 
-11601.03 -687.6816 201.3315 
-11619.24 -654.2773 154.9364 
-11635.65 -618.3783 109.6525 
-11653.93 -585.0657 63.21693 
-11589.31 -579.6758 41.95633 
-11564.40 -708.1297 249.9739 
-11570.21 -679.5530 195.2348 
-11583.72 -647.7799 145.8195 
-11597.12 -616.0490 96.33360 
-11602.67 -587.5826 41.41105 
-11518.92 -667.5493 261.7578 
-11527.19 -637.9519 208.7183 
-11535.16 -608.4767 155.4754 
-11550.28 -576.0326 107.1782 
-11490.14 -620.0344 285.0913 
-11491.79 -593.1846 227.4757 
-11506.09 -561.0807 178.6117 
-11518.30 -529.8495 128.2937 
-11456.01 -574.7405 304.7262 
-11461.06 -546.4792 249.4608 
-11472.47 -515.5775 198.5946 
-11487.15 -483.3152 149.9944 
-11423.25 -528.8792 325.3053 
-11425.38 -501.8277 268.0256 
-11439.59 -469.7634 219.0953 
-11453.10 -437.9917 169.6781 
-11555.87 -547.5475 52.28627 
-11523.88 -501.3674 73.39689 
-11492.39 -454.9766 94.85859 
-11459.14 -409.3154 115.1045 
-12422.87 -268.1657 656.0118 
-12380.56 -239.6817 700.1016 
-12345.38 -197.8915 725.8908 
-12312.19 -152.3675 746.5448 
-12278.18 -108.3922 769.3288 
-12244.66 -63.49112 790.8394 
-12370.68 -297.8048 637.8132 
-12330.79 -264.7957 675.6793 
-12296.29 -221.7278 699.7114 
-12262.27 -177.7735 722.5243 
-12229.69 -131.1110 741.6124 
-12194.81 -88.76376 766.6355 
-12322.61 -319.7405 609.0199 
-12278.92 -293.8311 656.6506 
-12247.68 -244.6770 672.3119 
-12213.72 -200.6046 694.9623 
-12179.99 -156.0987 717.0165 
-12149.31 -105.9108 731.2562 
-12272.60 -345.3049 585.2172 
-12226.84 -323.2436 638.1404 
-12195.19 -274.8691 654.8740 
-12162.19 -228.9980 675.0504 
-12131.68 -178.4809 688.8373 
-12097.86 -134.1505 711.1329 
-12224.58 -367.1628 556.3168 
-12178.49 -345.7090 610.0756 
-12144.19 -302.2810 633.6122 
-12113.68 -251.7561 647.3884 
-12079.89 -207.3723 669.6104 
-12048.65 -158.2317 685.2903 
-12171.00 -399.3908 541.6791 
-12129.21 -369.9265 584.4205 
-12095.72 -324.9572 605.8375 
-12060.60 -283.0631 631.4838 
-12029.88 -232.9433 645.8169 
-11999.47 -182.2350 659.3408 
-12119.54 -427.6540 521.5882 
-12080.84 -392.4238 556.3997 
-12045.94 -350.1007 581.4559 
-12011.04 -307.7743 606.5076 
-11981.13 -256.1468 618.7672 
-11947.38 -211.6722 640.8645 
-12071.00 -450.4643 493.9977 
-12030.26 -419.0469 534.0531 
-11997.96 -371.8806 552.4484 
-11963.72 -328.3282 575.8138 
-11929.69 -284.3785 598.6332 
-11899.63 -233.0341 611.2822 
-12410.86 -262.8675 670.2015 
-12376.34 -299.1073 630.4022 
-12331.37 -320.8794 597.0461 
-12285.86 -341.9274 564.0120 
-12234.25 -329.1510 630.9726 
-12197.16 -277.8570 653.8152 
-12240.44 -363.0866 530.9288 
-12194.91 -358.7121 594.1474 
-12196.25 -385.9507 497.0862 
-12162.55 -397.9388 553.0184 
-12123.27 -427.5864 516.1547 
-12155.07 -412.9673 461.3944 
-12080.83 -452.8771 481.2316 
-12104.68 -427.2632 431.3675 
-12394.65 -284.9349 647.8401 
-12240.20 -315.7620 643.0237 
-12194.37 -275.3271 654.5646 
-12157.06 -231.3501 672.0065 
-12098.28 -196.2927 674.5903 
-12056.07 -154.3517 688.6406 
-12142.14 -415.9379 531.9773 
-12160.56 242.2590 -385.8256 
-12182.56 136.1851 -465.4302 
-12155.41 192.9509 -460.2375 
-12156.39 302.2259 -527.2629 
-12107.29 318.0641 -465.7809 
-12233.53 191.5999 -683.8719 
-12241.35 313.6389 -768.4522 
-12222.09 385.1452 -783.5328 
-12184.76 422.9285 -752.2327 
-12149.37 464.3251 -725.9021 
-12377.10 108.1093 -395.4813 
-12394.58 142.5401 -441.4191 
-12412.63 176.1614 -487.7176 
-12430.93 209.4483 -534.1649 
-12447.40 245.2684 -579.4839 
-12465.92 278.2478 -626.0682 
-12484.80 310.7363 -672.8709 
-12505.16 341.1750 -720.5867 
-12329.94 89.36502 -427.4893 
-12349.25 121.2541 -474.5591 
-12365.00 158.0579 -519.4401 
-12384.41 189.8109 -566.5704 
-12404.49 220.6344 -614.1147 
-12419.95 257.8521 -658.8116 
-12438.46 290.8389 -705.3924 
-12454.56 327.1733 -750.4827 
-12282.66 70.76847 -459.4314 
-12299.89 105.5376 -505.2187 
-12320.97 134.9787 -553.3786 
-12339.71 167.6475 -600.1011 
-12356.49 203.0452 -645.6083 
-12375.22 235.7287 -692.3243 
-12395.35 266.4907 -739.8959 
-12411.10 303.2969 -784.7761 
-12168.66 228.4227 -389.2238 
-12158.71 242.1744 -383.0999 
-12221.82 70.93190 -483.0193 
-12255.99 82.26765 -539.2421 
-12272.09 118.5998 -584.3331 
-12293.87 147.0759 -632.9227 
-12308.92 184.8572 -677.3685 
-12326.94 218.5268 -723.6454 
-12346.55 250.0015 -770.8997 
-12366.17 281.4589 -818.1617 
-12190.79 113.8364 -463.9128 
-12156.86 219.3563 -478.1929 
-12167.63 263.0547 -520.0036 
-12132.32 311.8851 -498.2581 
-12080.52 324.9223 -431.1816 
-12241.63 193.9402 -696.9843 
-12276.20 204.7207 -753.4543 
-12294.35 238.2201 -799.8069 
-12312.07 272.2989 -845.9016 
-12233.37 205.3569 -691.9001 
-12237.19 258.6605 -729.4335 
-12241.46 311.3558 -767.2376 
-12095.77 454.2330 -642.3400 
-12131.91 462.8531 -699.7719 
-12161.54 241.4854 -382.4986 
-12182.54 131.2752 -454.4507 
-12166.81 184.2081 -422.0928 
-12142.91 259.9148 -454.1395 
-12158.25 292.4511 -502.2833 
-12086.87 269.9459 -390.9021 
-12108.15 304.9490 -434.9375 
-12204.23 80.81993 -482.6820 
-12204.77 107.2083 -541.0663 
-12220.08 139.7298 -589.2349 
-12228.10 169.2260 -642.4427 
-12181.16 156.8673 -514.1613 
-12190.59 186.9503 -566.3917 
-12203.83 218.6103 -615.9954 
-12216.98 250.2373 -665.6539 
-12231.05 282.2432 -714.6817 
-12241.03 312.5517 -766.5363 
-12155.11 205.5173 -488.9368 
-12168.08 237.0668 -538.7245 
-12177.74 267.2435 -590.7988 
-12190.04 298.5135 -641.0521 
-12202.98 330.0523 -690.8577 
-12216.58 361.8632 -740.2100 
-12151.26 315.7130 -565.8753 
-12154.37 343.1696 -622.4799 
-12167.27 374.6907 -672.3151 
-12181.44 406.7381 -721.2733 
-12102.64 328.8254 -497.5056 
-12112.16 358.9440 -549.6767 
-12119.96 388.3458 -603.0416 
-12133.15 419.9900 -652.6718 
-12145.60 451.3245 -702.8174 
-12235.36 198.4038 -696.1807 
-12243.36 227.8913 -749.4031 
-12256.55 259.5322 -799.0385 
-12271.46 291.8899 -847.4802 
-12246.59 341.0286 -821.4418 
-12222.72 390.5809 -794.7145 
-12187.34 435.3560 -775.9443 
-12154.08 481.0104 -755.7094 
-12703.25 244.9013 -168.9398 
-12721.38 278.4212 -215.2834 
-12739.94 311.3491 -261.8906 
-12759.08 343.4608 -308.8612 
-12776.41 378.0949 -354.7084 
-12794.63 411.4910 -401.1071 
-12812.76 445.0169 -447.4479 
-12830.73 478.7540 -493.6948 
-12656.30 225.8560 -201.0819 
-12674.51 259.2570 -247.4784 
-12694.21 290.6174 -294.7835 
-12711.14 325.7862 -340.3927 
-12730.15 358.0981 -387.2743 
-12747.59 392.5729 -433.1925 
-12765.16 426.8639 -479.1926 
-12783.73 459.7800 -525.8051 
-12609.74 206.2607 -233.4688 
-12628.80 238.4944 -280.3851 
-12646.90 272.0563 -326.7100 
-12664.19 306.7502 -372.5306 
-12682.75 339.6674 -419.1425 
-12700.62 373.5458 -465.3264 
-12718.01 408.0919 -511.2129 
-12736.56 441.0356 -557.8131 
-12562.61 187.4644 -265.5000 
-12582.18 218.9987 -312.7278 
-12599.11 254.1728 -358.3345 
-12618.05 286.5786 -405.1742 
-12635.38 321.2037 -451.0256 
-12653.31 355.0034 -497.2444 
-12671.02 389.1006 -543.3308 
-12689.44 422.2265 -589.8498 
-12516.08 167.8432 -297.8984 
-12534.36 201.1514 -344.3362 
-12552.09 235.2214 -390.4346 
-12572.00 266.2802 -437.8743 
-12589.12 301.2040 -483.5925 
-12605.83 336.6930 -529.0591 
-12625.21 368.4748 -576.1766 
-12643.91 401.2182 -622.8660 
-12470.55 146.8292 -330.9171 
-12489.95 178.6017 -378.0388 
-12505.47 215.7253 -422.7774 
-12524.08 248.5885 -469.4135 
-12541.97 282.4333 -515.6121 
-12559.38 316.9472 -561.5131 
-12577.98 349.8259 -608.1421 
-12596.10 383.3532 -654.4824 
-12424.10 127.0923 -363.3671 
-12440.24 163.3619 -408.4861 
-12461.11 193.0955 -456.5157 
-12477.35 229.2336 -501.6934 
-12495.83 262.2715 -548.2515 
-12512.52 297.7850 -593.7072 
-12531.26 330.4598 -640.4270 
-12549.10 364.3793 -686.5925 
-13423.09 948.7504 -629.2292 
-13424.68 940.4748 -626.5699 
-13415.39 953.3293 -620.8454 
-13410.27 940.7202 -632.0073 
-12716.76 -126.3121 814.6891 
-12682.86 -82.13371 837.1937 
