ply
format ascii 1.0
comment FreeCAD generated
element vertex 1554
property float x
property float y
property float z
end_header
-1574.993 15.65380 -2653.661 
-1614.496 17.16984 -2599.717 
-1599.146 -89.73559 -3085.425 
-1563.792 76.44117 -2986.843 
-1581.697 107.1950 -2856.637 
-1631.697 123.1202 -2813.333 
-1624.169 18.52167 -3097.260 
-1644.217 76.27316 -3033.193 
-1680.242 78.57352 -2989.293 
-1647.894 129.6730 -2963.303 
-1694.634 158.7003 -2778.830 
-1903.262 -289.0655 -1976.670 
-1889.126 -236.5197 -1918.968 
-1920.889 -198.9017 -1797.133 
-1914.622 -248.9953 -2050.578 
-1905.067 -199.4598 -1996.876 
-1918.842 -154.0845 -1887.672 
-1957.001 -110.9058 -1748.469 
-1941.514 -208.0413 -2093.972 
-1925.139 -163.7876 -2050.744 
-1932.048 -121.5022 -1951.846 
-1930.717 -72.35400 -1881.868 
-1987.633 -25.50694 -1714.233 
-1927.222 -161.6603 -2207.532 
-1946.826 -119.3952 -2098.418 
-1962.204 -79.66545 -1996.781 
-1972.533 -35.64589 -1902.572 
-1987.578 9.068316 -1804.722 
-1940.679 -77.09478 -2190.708 
-1989.158 -33.11546 -2040.145 
-2002.196 4.544555 -1940.762 
-2007.817 47.63936 -1846.289 
-2024.566 0.1361397 -2070.822 
-2031.213 49.01774 -1990.633 
-2026.109 88.75031 -1913.380 
-2034.627 132.6884 -1822.731 
-2048.867 45.47618 -2117.351 
-2053.320 87.57086 -2035.253 
-2050.778 130.2054 -1961.612 
-2056.725 171.9895 -1880.168 
-2098.708 125.7305 -2055.118 
-2082.987 168.0114 -1992.861 
-2077.177 210.2214 -1928.104 
-2125.625 160.3682 -2100.502 
-2119.016 212.4564 -2036.895 
-2107.067 247.5535 -1969.928 
-1809.409 -303.0509 -2167.977 
-1834.807 -300.3269 -2120.665 
-1868.753 -298.2782 -2069.802 
-1900.740 -308.2224 -2011.361 
-1893.365 -248.7795 -1943.940 
-1900.786 -216.3125 -1872.662 
-1917.669 -202.9504 -1809.910 
-1933.922 -184.5615 -1754.275 
-1956.185 -179.4515 -1698.849 
-1853.262 -254.5563 -2195.747 
-1874.901 -255.1447 -2142.705 
-1902.097 -254.2685 -2085.887 
-1911.990 -220.1081 -2018.797 
-1907.934 -174.3635 -1948.707 
-1914.510 -153.9912 -1884.127 
-1932.847 -133.3127 -1816.640 
-1952.930 -116.8140 -1759.905 
-1973.498 -102.5275 -1705.635 
-1884.396 -208.2868 -2209.994 
-1914.984 -207.9220 -2162.552 
-1935.088 -209.7717 -2103.652 
-1921.581 -147.9009 -2020.615 
-1930.789 -120.2393 -1959.397 
-1933.222 -73.92134 -1887.055 
-1945.534 -60.70981 -1823.256 
-1965.486 -45.56101 -1771.494 
-1980.009 -26.37700 -1710.603 
-1920.019 -161.1099 -2228.783 
-1938.624 -153.9639 -2175.955 
-1953.549 -132.1039 -2109.720 
-1959.175 -101.8487 -2042.476 
-1967.077 -72.98262 -1980.298 
-1976.404 -40.71847 -1910.932 
-1983.857 -8.139552 -1846.812 
-1982.586 26.28085 -1778.322 
-2003.578 34.36376 -1723.601 
-1933.920 -89.42664 -2232.061 
-1954.867 -78.66728 -2173.997 
-1968.299 -67.49768 -2115.394 
-1987.769 -56.01676 -2060.798 
-1994.997 -14.51692 -1993.375 
-2007.814 14.03864 -1930.441 
-2002.979 50.33278 -1862.627 
-2018.171 70.77361 -1795.493 
-2045.744 82.37718 -1737.057 
-1951.794 -21.52313 -2246.977 
-1976.482 -17.59345 -2187.788 
-2003.863 -16.72551 -2140.643 
-2027.272 -10.32409 -2081.360 
-2025.731 38.00636 -2006.120 
-2022.100 73.52395 -1939.840 
-2029.782 107.0687 -1873.579 
-2039.013 136.2267 -1808.007 
-2071.611 138.5173 -1760.008 
-1976.166 46.16036 -2252.734 
-2005.060 40.56767 -2200.083 
-2037.167 28.99325 -2155.253 
-2059.691 48.12534 -2098.344 
-2055.565 92.21893 -2025.486 
-2049.488 140.9913 -1943.146 
-2049.814 175.5047 -1882.975 
-2068.662 188.0783 -1819.883 
-2108.749 177.2260 -1768.810 
-2003.374 89.29334 -2276.198 
-2036.039 89.49644 -2222.754 
-2074.382 85.31550 -2167.111 
-2093.314 90.43306 -2117.262 
-2093.913 126.7648 -2048.629 
-2076.670 197.2132 -1962.840 
-2081.357 228.9383 -1900.376 
-2106.629 226.0676 -1845.288 
-2037.595 134.1522 -2291.962 
-2075.678 133.4052 -2237.251 
-2102.279 133.4665 -2184.634 
-2124.865 136.9699 -2132.710 
-2113.857 200.5164 -2057.830 
-2111.672 245.0121 -1986.715 
-2122.036 267.4028 -1916.180 
-2150.075 271.1157 -1866.265 
-1917.399 -253.2215 -2021.032 
-1886.522 -232.3378 -1937.628 
-1915.713 -164.1046 -1885.336 
-1914.018 -191.3634 -1811.780 
-1964.194 -128.3148 -1700.105 
-1911.245 -184.4778 -2017.790 
-1941.936 -96.62951 -1824.544 
-1945.118 -114.9593 -1760.732 
-1986.222 -29.93356 -1704.617 
-1936.941 -172.8339 -2169.344 
-1941.095 -199.1318 -2102.668 
-1938.453 -103.6732 -1957.995 
-1969.622 -8.551693 -1769.682 
-1919.158 -157.8039 -2235.094 
-1949.502 -80.30025 -2171.521 
-1957.084 -106.5774 -2106.033 
-1989.779 -13.39726 -1917.535 
-1934.730 -71.13201 -2233.731 
-2015.791 55.91383 -1864.961 
-2037.634 129.0461 -1801.622 
-2066.382 121.4035 -1754.929 
-2048.820 25.04897 -2093.424 
-2045.899 75.95397 -2023.554 
-2038.146 109.4941 -1947.514 
-1975.403 45.29309 -2257.152 
-2015.212 53.68007 -2210.244 
-2067.011 69.72130 -2163.325 
-2050.994 173.4104 -1883.167 
-1397.753 -512.6749 -2480.594 
-1573.523 -478.3251 -2265.526 
-1381.134 -505.3993 -2481.415 
-1411.994 -439.1910 -2497.916 
-1455.872 -462.1817 -2452.854 
-1487.930 -468.3339 -2407.059 
-1516.082 -470.2227 -2349.665 
-1543.248 -468.4495 -2302.827 
-1451.019 -400.9612 -2522.850 
-1487.757 -410.0703 -2471.427 
-1511.041 -413.0393 -2421.992 
-1549.129 -417.0592 -2367.471 
-1580.534 -421.7004 -2317.542 
-1613.692 -421.4228 -2270.168 
-1639.783 -425.0706 -2216.585 
-1669.176 -431.0708 -2167.920 
-1711.260 -440.6066 -2112.684 
-1486.191 -358.5667 -2543.121 
-1524.350 -364.6749 -2489.846 
-1553.507 -373.1804 -2436.516 
-1586.882 -374.6508 -2383.636 
-1609.318 -373.9799 -2333.479 
-1648.156 -379.9316 -2285.127 
-1674.469 -378.1732 -2238.984 
-1708.098 -383.3771 -2182.841 
-1731.903 -388.8805 -2128.938 
-1531.452 -322.0076 -2560.649 
-1559.775 -330.7629 -2510.744 
-1588.544 -330.3453 -2462.343 
-1623.971 -330.7575 -2405.661 
-1648.576 -334.2905 -2351.823 
-1677.940 -326.6405 -2307.163 
-1707.848 -338.0686 -2255.295 
-1739.270 -343.7242 -2204.696 
-1769.784 -336.8901 -2153.305 
-1599.855 -283.0540 -2534.560 
-1627.393 -281.5722 -2482.202 
-1660.058 -286.0975 -2425.647 
-1690.185 -291.4532 -2379.639 
-1719.061 -287.1250 -2325.543 
-1742.831 -292.0406 -2274.891 
-1779.100 -294.4899 -2220.138 
-1393.120 -513.6189 -2491.546 
-1440.779 -491.6780 -2451.772 
-1486.001 -479.8995 -2398.454 
-1518.648 -474.8531 -2348.824 
-1541.276 -483.2796 -2297.685 
-1583.269 -471.4383 -2255.653 
-1617.757 -470.7419 -2200.222 
-1657.776 -466.5178 -2159.951 
-1205.471 -603.4489 -3468.836 
-1312.093 -601.5096 -3281.927 
-1259.139 -561.6164 -3472.467 
-1341.574 -566.0306 -3323.708 
-1328.825 -527.6203 -3442.132 
-1365.978 -523.7407 -3362.824 
-1041.833 -823.5542 -3337.418 
-1076.880 -821.5363 -3280.135 
-1103.366 -826.9666 -3234.344 
-1135.182 -831.9763 -3183.693 
-1161.374 -826.7020 -3128.726 
-1198.316 -831.5740 -3073.884 
-1228.895 -836.1500 -3025.885 
-1253.150 -831.3757 -2971.262 
-1083.433 -783.9528 -3355.134 
-1114.494 -787.1693 -3302.727 
-1147.329 -788.3419 -3250.753 
-1173.761 -788.8813 -3205.373 
-1197.798 -785.7361 -3144.535 
-1234.553 -796.9757 -3097.682 
-1268.271 -789.4334 -3046.323 
-1292.635 -792.1989 -2992.075 
-1118.917 -739.6154 -3377.766 
-1154.455 -744.2673 -3331.212 
-1185.669 -744.1097 -3278.057 
-1218.434 -744.5225 -3226.066 
-1247.462 -749.8133 -3176.890 
-1275.693 -748.0854 -3117.955 
-1309.845 -750.8296 -3070.988 
-1331.627 -757.4780 -3019.214 
-1160.296 -703.2263 -3401.259 
-1188.822 -705.8098 -3353.498 
-1228.247 -707.2599 -3294.619 
-1254.029 -708.4195 -3250.733 
-1285.050 -714.1199 -3195.810 
-1318.413 -707.9553 -3142.781 
-1342.700 -711.7681 -3094.835 
-1373.713 -711.1313 -3038.800 
-1195.545 -654.4146 -3422.215 
-1222.794 -645.9971 -3366.615 
-1255.127 -650.2252 -3315.257 
-1288.861 -668.2222 -3270.478 
-1325.175 -673.9163 -3215.710 
-1354.314 -674.1839 -3167.953 
-1382.130 -676.1226 -3114.694 
-1416.519 -673.5813 -3056.049 
-1316.022 -603.7037 -3281.662 
-1364.618 -631.6288 -3236.843 
-1388.885 -636.1064 -3187.193 
-1421.685 -633.9849 -3135.861 
-1447.863 -634.1682 -3077.925 
-1217.993 -588.8953 -3424.227 
-1249.664 -591.3731 -3377.919 
-1277.636 -592.0814 -3331.804 
-1359.944 -572.0894 -3303.983 
-1404.663 -594.2505 -3263.743 
-1431.794 -597.7059 -3209.422 
-1467.846 -594.3560 -3157.739 
-1483.539 -581.2129 -3098.819 
-1259.291 -559.3702 -3456.394 
-1291.815 -554.9421 -3406.342 
-1314.703 -560.7863 -3351.746 
-1309.391 -522.1788 -3476.521 
-1400.468 -536.2346 -3331.953 
-1441.043 -554.4474 -3281.354 
-1470.382 -555.4317 -3232.023 
-1498.439 -551.5968 -3181.805 
-1526.474 -548.6357 -3121.472 
-1334.095 -524.5737 -3427.490 
-1366.195 -524.0676 -3372.578 
-1210.542 -617.9641 -3421.714 
-1236.352 -619.3400 -3368.201 
-1270.416 -613.5801 -3320.001 
-1288.040 -529.7358 -3473.123 
-1131.785 -1449.647 -1835.148 
-816.9224 -1506.697 -2187.064 
-853.2126 -1512.946 -2130.091 
-875.6245 -1513.343 -2082.343 
-910.5203 -1521.179 -2025.654 
-941.5854 -1521.704 -1981.209 
-973.5550 -1519.336 -1928.331 
-1001.517 -1527.126 -1873.724 
-1038.316 -1523.003 -1826.530 
-1061.512 -1526.908 -1775.284 
-861.5862 -1464.047 -2203.538 
-887.7985 -1473.883 -2151.567 
-916.8627 -1468.478 -2102.492 
-949.1463 -1471.847 -2054.165 
-981.3284 -1470.562 -1999.491 
-1005.861 -1476.933 -1947.948 
-1045.538 -1480.849 -1893.246 
-1072.386 -1479.475 -1846.632 
-1108.096 -1495.108 -1796.102 
-1155.796 -1459.595 -1822.288 
-900.7211 -1432.222 -2227.332 
-926.8734 -1428.612 -2171.606 
-955.7394 -1433.428 -2125.582 
-984.1639 -1438.745 -2068.266 
-1015.723 -1432.075 -2015.900 
-1044.707 -1439.441 -1964.905 
-1082.799 -1440.248 -1921.575 
-1114.304 -1438.587 -1869.421 
-941.6146 -1388.340 -2247.404 
-968.9452 -1390.273 -2201.179 
-997.1385 -1397.275 -2148.412 
-1028.290 -1401.120 -2095.644 
-1062.171 -1395.619 -2040.545 
-1093.386 -1397.366 -1993.617 
-1116.580 -1400.369 -1935.271 
-1153.044 -1402.011 -1891.315 
-1178.309 -1410.035 -1832.850 
-972.6059 -1354.203 -2270.177 
-1004.934 -1349.113 -2216.473 
-1037.070 -1349.838 -2170.801 
-1066.717 -1355.672 -2114.291 
-1102.313 -1358.993 -2060.582 
-1127.431 -1365.398 -2012.229 
-1156.904 -1359.859 -1958.831 
-1186.782 -1361.744 -1909.837 
-1219.440 -1363.396 -1854.287 
-1016.501 -1316.716 -2297.221 
-1044.107 -1318.263 -2243.962 
-1079.307 -1312.370 -2191.065 
-1104.520 -1319.501 -2137.517 
-1142.414 -1325.928 -2083.053 
-1167.941 -1323.276 -2039.008 
-1202.931 -1328.046 -1979.794 
-1234.876 -1329.798 -1928.351 
-1256.189 -1331.864 -1883.055 
-1053.740 -1272.311 -2313.992 
-1083.384 -1272.739 -2267.535 
-1116.173 -1282.870 -2211.775 
-1146.504 -1276.886 -2160.730 
-1180.875 -1284.401 -2108.445 
-1208.612 -1289.160 -2053.368 
-1237.574 -1288.681 -2002.981 
-1270.227 -1289.510 -1953.363 
-1299.474 -1282.833 -1897.956 
-1100.125 -1234.887 -2342.240 
-1132.041 -1235.176 -2291.370 
-1163.988 -1243.655 -2231.858 
-1193.603 -1242.844 -2182.596 
-1222.724 -1243.888 -2135.068 
-1246.357 -1243.109 -2080.540 
-1284.090 -1245.290 -2029.854 
-1307.360 -1246.066 -1976.218 
-1343.287 -1243.707 -1923.065 
-1137.595 -1202.786 -2356.478 
-1172.184 -1194.184 -2313.103 
-1201.969 -1197.449 -2257.233 
-1232.464 -1208.661 -2208.735 
-1260.849 -1207.828 -2156.855 
-1291.551 -1208.704 -2101.137 
-1318.190 -1211.283 -2053.267 
-1353.493 -1211.609 -1998.508 
-1117.804 -1485.524 -1799.935 
-1162.785 -1437.406 -1828.395 
-1188.940 -480.1673 -3766.073 
-1146.902 -425.8375 -3761.129 
-1121.217 -380.2615 -3732.949 
-1080.895 -339.3123 -3718.321 
-1052.488 -293.1823 -3698.441 
-1308.170 -392.9532 -3587.365 
-1276.725 -354.1232 -3557.214 
-1239.122 -308.3911 -3532.063 
-1208.253 -255.5580 -3512.800 
-1196.088 -482.2710 -3765.125 
-1232.449 -491.5440 -3712.285 
-1267.992 -491.7112 -3659.779 
-1296.186 -490.9756 -3613.823 
-1322.710 -493.2858 -3560.092 
-1342.744 -435.2080 -3575.093 
-1203.627 -467.0013 -3760.252 
-1244.508 -459.4272 -3713.769 
-1273.036 -457.1342 -3668.948 
-1306.517 -459.1564 -3617.885 
-1347.677 -444.8773 -3574.969 
-1178.358 -416.4076 -3747.859 
-1213.749 -404.4003 -3703.489 
-1253.440 -404.7964 -3652.855 
-1286.567 -404.2023 -3602.052 
-1145.055 -375.3313 -3730.639 
-1187.087 -358.7605 -3680.673 
-1223.065 -358.1319 -3630.224 
-1254.318 -358.3262 -3580.403 
-1113.064 -327.7331 -3706.085 
-1147.783 -312.0882 -3661.985 
-1187.708 -313.1128 -3614.695 
-1222.900 -308.7690 -3558.313 
-1071.129 -276.4355 -3681.887 
-1122.007 -273.4893 -3639.790 
-1150.323 -264.6643 -3592.925 
-1185.801 -260.1419 -3541.609 
-1324.682 -386.4310 -3558.904 
-1294.783 -348.1863 -3532.608 
-1262.494 -302.9149 -3512.408 
-1225.392 -260.6443 -3492.351 
-607.0872 -1139.678 -3220.740 
-564.8989 -1097.210 -3227.332 
-526.1014 -1045.568 -3206.012 
-488.6057 -1006.071 -3189.515 
-453.2658 -958.2365 -3170.441 
-425.4669 -915.4039 -3148.874 
-643.6552 -1105.999 -3256.022 
-596.5677 -1052.982 -3257.072 
-555.9312 -1012.768 -3238.551 
-527.7856 -964.4653 -3219.325 
-494.6406 -919.6187 -3202.532 
-457.9815 -871.4564 -3182.510 
-681.4951 -1059.610 -3283.751 
-631.9753 -1016.001 -3296.447 
-599.5645 -968.9812 -3270.873 
-561.1354 -920.2292 -3245.279 
-527.1138 -879.5447 -3231.377 
-501.9937 -836.7813 -3201.246 
-710.6161 -1021.628 -3317.829 
-662.1638 -979.5681 -3330.091 
-628.1179 -928.7261 -3309.643 
-596.8081 -885.8958 -3283.074 
-562.7457 -838.0160 -3254.197 
-530.8391 -794.9089 -3239.871 
-749.9785 -980.7541 -3340.185 
-692.6222 -941.3004 -3353.065 
-663.0989 -888.4623 -3335.271 
-635.6564 -841.7108 -3313.987 
-600.1540 -801.3061 -3294.608 
-572.2513 -752.6281 -3264.793 
-774.1406 -947.5794 -3384.389 
-736.0060 -900.7793 -3390.214 
-698.7379 -848.4716 -3364.708 
-661.7038 -804.9919 -3351.392 
-631.0806 -761.5322 -3327.774 
-605.9386 -714.9323 -3292.674 
-808.9420 -909.7930 -3419.225 
-772.3301 -860.6127 -3408.463 
-736.0338 -811.1324 -3393.810 
-695.1743 -770.7283 -3380.980 
-665.0352 -719.4709 -3357.593 
-633.7547 -676.5223 -3337.487 
-847.5677 -868.4050 -3448.444 
-801.3604 -818.4359 -3444.130 
-772.2504 -775.0214 -3428.010 
-730.8851 -726.4159 -3408.472 
-698.0682 -687.3094 -3386.048 
-674.6506 -635.6937 -3361.893 
-600.0043 -1126.192 -3226.072 
-650.9147 -1106.850 -3251.049 
-693.8036 -1066.095 -3274.143 
-729.2980 -1033.322 -3298.292 
-663.1007 -986.7534 -3328.081 
-628.6684 -937.7206 -3311.722 
-771.7454 -997.0785 -3321.680 
-713.6758 -957.1702 -3357.271 
-812.6346 -960.1046 -3348.921 
-769.5948 -937.3741 -3383.766 
-815.6912 -912.4567 -3415.604 
-864.4471 -933.7382 -3366.923 
-863.5025 -879.6824 -3438.247 
-899.2463 -881.8322 -3390.814 
-623.2512 -1118.489 -3239.112 
-653.3747 -985.4777 -3324.150 
-630.9978 -925.9636 -3304.114 
-597.4134 -876.4582 -3289.280 
-591.2015 -817.8834 -3283.221 
-559.0894 -760.5370 -3264.647 
-795.0853 -923.5029 -3406.536 
-1420.056 -643.4747 -2500.980 
-1528.609 -693.4927 -2562.037 
-1500.962 -650.2983 -2521.063 
-1525.551 -599.4836 -2402.151 
-1468.658 -554.9958 -2432.265 
-1706.871 -705.6235 -2419.485 
-1743.031 -665.7902 -2279.029 
-1728.229 -619.1041 -2219.444 
-1688.364 -574.3945 -2209.004 
-1653.652 -521.4753 -2199.198 
-1455.657 -885.0665 -2540.475 
-1489.006 -886.4711 -2481.446 
-1516.326 -885.3277 -2429.992 
-1544.451 -886.8087 -2383.450 
-1573.407 -890.7225 -2328.531 
-1612.458 -888.4884 -2281.436 
-1638.368 -893.6096 -2227.131 
-1671.715 -901.2164 -2174.487 
-1498.984 -848.7258 -2562.882 
-1534.125 -852.6110 -2505.150 
-1556.349 -846.3284 -2451.676 
-1592.330 -858.1192 -2401.523 
-1617.976 -859.7556 -2354.421 
-1650.937 -857.1202 -2297.797 
-1684.542 -859.0870 -2248.145 
-1706.279 -854.5934 -2190.544 
-1542.533 -806.6281 -2581.628 
-1564.710 -807.4996 -2531.587 
-1604.177 -810.2285 -2482.119 
-1633.735 -812.3685 -2425.204 
-1663.638 -814.0374 -2377.783 
-1686.443 -818.3140 -2319.378 
-1726.866 -825.6995 -2275.533 
-1751.534 -825.2822 -2219.863 
-1420.392 -650.2161 -2506.633 
-1413.853 -639.7349 -2507.148 
-1559.913 -747.8237 -2597.748 
-1610.480 -772.9255 -2552.622 
-1636.920 -776.6697 -2495.367 
-1669.847 -779.3565 -2445.938 
-1695.083 -775.5638 -2399.782 
-1732.570 -781.7507 -2344.423 
-1762.202 -777.6864 -2291.184 
-1789.731 -787.7690 -2241.163 
-1537.575 -709.0506 -2578.590 
-1515.998 -633.5171 -2489.934 
-1537.892 -623.4308 -2435.671 
-1503.639 -575.4263 -2413.864 
-1439.346 -527.8472 -2449.283 
-1714.075 -710.2587 -2405.451 
-1761.667 -735.8384 -2364.238 
-1791.085 -732.5625 -2308.785 
-1827.489 -733.3044 -2262.826 
-1713.118 -699.6427 -2403.763 
-1729.688 -681.1205 -2344.830 
-1740.224 -658.8467 -2277.021 
-1588.005 -485.7108 -2248.906 
-1637.981 -510.3824 -2215.295 
-1412.207 -641.3400 -2500.891 
-1521.955 -690.1214 -2562.400 
-1469.659 -658.0801 -2540.789 
-1473.042 -611.2559 -2475.038 
-1508.844 -612.5721 -2422.935 
-1417.132 -556.5052 -2503.488 
-1439.344 -559.7926 -2446.556 
-1557.518 -725.8390 -2591.991 
-1603.840 -717.7180 -2545.639 
-1640.120 -718.5313 -2498.720 
-1679.421 -713.6461 -2456.167 
-1564.124 -674.6847 -2524.721 
-1606.987 -670.2734 -2473.809 
-1634.953 -667.0922 -2430.792 
-1674.058 -672.4777 -2377.906 
-1706.212 -667.0629 -2329.238 
-1737.753 -657.8003 -2276.335 
-1525.094 -636.5605 -2499.068 
-1562.517 -633.6267 -2447.747 
-1594.826 -629.2131 -2398.930 
-1633.906 -630.8979 -2354.182 
-1671.981 -623.8867 -2300.498 
-1697.520 -624.8928 -2252.801 
-1560.113 -595.5690 -2381.788 
-1598.858 -584.4074 -2337.700 
-1637.551 -579.2314 -2282.643 
-1665.985 -571.6901 -2232.712 
-1495.749 -547.5593 -2405.475 
-1528.289 -538.1110 -2364.694 
-1574.416 -529.8658 -2312.176 
-1608.831 -530.6063 -2264.742 
-1637.260 -523.1263 -2217.387 
-1715.937 -706.6649 -2400.841 
-1757.265 -699.7717 -2354.292 
-1794.318 -691.7709 -2305.453 
-1826.596 -691.8890 -2257.146 
-1785.804 -654.1906 -2231.604 
-1738.296 -618.2728 -2205.228 
-1709.492 -567.0869 -2187.178 
-1680.990 -515.9894 -2166.573 
-1176.903 -1162.377 -2383.317 
-1210.747 -1155.222 -2326.292 
-1242.083 -1158.845 -2283.887 
-1273.884 -1162.439 -2225.116 
-1303.464 -1169.244 -2175.264 
-1326.869 -1163.755 -2126.778 
-1360.523 -1166.526 -2070.185 
-1390.742 -1166.200 -2019.410 
-1222.433 -1122.719 -2407.434 
-1252.862 -1118.534 -2349.343 
-1280.371 -1120.044 -2300.995 
-1312.513 -1121.757 -2250.024 
-1340.486 -1130.044 -2201.854 
-1364.823 -1123.984 -2146.527 
-1403.717 -1127.837 -2095.544 
-1426.788 -1133.566 -2045.421 
-1259.309 -1080.390 -2425.260 
-1288.192 -1081.483 -2374.314 
-1323.986 -1087.599 -2324.798 
-1347.233 -1084.395 -2266.312 
-1383.387 -1086.864 -2219.841 
-1407.911 -1084.037 -2169.499 
-1438.228 -1089.483 -2110.936 
-1470.358 -1096.282 -2066.727 
-1297.008 -1044.044 -2452.244 
-1328.827 -1047.362 -2393.142 
-1361.780 -1049.503 -2345.176 
-1390.835 -1043.020 -2289.855 
-1420.649 -1049.035 -2239.088 
-1451.474 -1050.632 -2185.164 
-1477.636 -1048.721 -2132.961 
-1510.052 -1054.776 -2087.201 
-1338.733 -1006.230 -2468.132 
-1371.920 -1002.403 -2417.031 
-1395.940 -1003.106 -2363.158 
-1428.619 -1010.971 -2315.071 
-1463.963 -1010.406 -2262.778 
-1483.564 -1007.595 -2211.389 
-1517.074 -1009.122 -2161.775 
-1549.669 -1016.767 -2112.508 
-1380.528 -962.0905 -2490.031 
-1410.098 -967.2778 -2447.605 
-1438.438 -971.4521 -2384.335 
-1471.162 -973.9011 -2340.329 
-1501.551 -965.6753 -2281.142 
-1523.380 -966.1379 -2229.789 
-1557.834 -975.5472 -2185.721 
-1589.668 -975.5370 -2130.505 
-1422.199 -930.1199 -2511.042 
-1450.466 -930.2498 -2463.343 
-1476.258 -929.6312 -2417.591 
-1505.646 -927.9296 -2362.733 
-1541.058 -927.6155 -2312.154 
-1567.743 -935.1519 -2251.076 
-1601.424 -934.6796 -2207.652 
-1629.258 -930.5873 -2152.106 
-1306.442 -1545.483 -1355.550 
-1307.500 -1543.298 -1359.798 
-1301.297 -1529.650 -1358.603 
-1317.515 -1537.408 -1368.341 
-395.7850 -1370.279 -3042.944 
-358.1613 -1329.332 -3030.151 
-475.0921 -1298.346 -3094.781 
-385.7628 -1201.432 -3075.783 
-303.7805 -1069.231 -2991.612 
-489.7614 -1256.270 -3146.686 
-459.6537 -1207.793 -3121.801 
-433.5467 -1167.679 -3097.866 
-394.9668 -1120.430 -3088.080 
-370.9472 -1077.734 -3047.761 
-335.4931 -1031.759 -3026.162 
-531.2473 -1222.712 -3169.017 
-487.6289 -1171.067 -3164.877 
-458.6256 -1128.439 -3141.286 
-426.1934 -1076.485 -3121.816 
-400.9243 -1038.580 -3089.425 
-366.3485 -988.6750 -3067.769 
-566.8005 -1175.158 -3195.653 
-537.6530 -1135.925 -3179.406 
-502.0064 -1090.511 -3155.563 
-467.8420 -1042.461 -3136.077 
-438.5966 -995.9053 -3115.635 
-404.2060 -951.5227 -3097.708 
-391.3805 -1375.695 -3039.842 
-354.2354 -1321.214 -3018.523 
-470.1073 -1302.520 -3090.651 
-462.1286 -1282.810 -3079.249 
-436.9751 -1242.615 -3061.926 
-373.6831 -1163.473 -3025.981 
-342.0498 -1110.253 -3006.236 
-520.9587 -1269.407 -3117.656 
-564.3743 -1237.810 -3139.589 
-611.0686 -1203.634 -3161.729 
-388.5096 -1378.070 -3044.608 
-355.5995 -1332.377 -3016.320 
-391.4616 -1370.000 -3043.501 
-366.8355 -1319.790 -3026.743 
-473.0928 -1303.616 -3084.483 
-376.4105 -1227.709 -3031.246 
-293.0935 -1080.319 -2974.418 
-452.1381 -1235.606 -3070.496 
-371.0638 -1162.326 -3027.535 
-336.4993 -1111.891 -3007.884 
-539.6234 -1121.687 -3193.357 
-509.7774 -1071.519 -3170.339 
-482.1244 -1019.878 -3158.400 
-456.1199 -973.6795 -3135.524 
-411.0470 -937.8394 -3106.944 
-1366.962 -439.4304 -3554.143 
-1553.671 -408.0708 -3327.342 
-1510.407 -364.7283 -3313.385 
-1472.887 -318.1041 -3315.750 
-1449.009 -279.1833 -3268.708 
-1413.545 -231.4956 -3252.325 
-1360.855 -181.0607 -3266.020 
-1644.955 -374.2971 -3254.353 
-1597.441 -327.2213 -3263.236 
-1559.391 -285.0889 -3249.272 
-1525.758 -241.9893 -3233.890 
-1493.376 -193.1710 -3209.001 
-1454.541 -149.2991 -3195.498 
-1675.233 -338.7908 -3294.828 
-1631.495 -288.8316 -3287.155 
-1601.866 -245.8025 -3269.276 
-1568.298 -200.4447 -3251.548 
-1527.175 -149.6727 -3230.181 
-1494.609 -105.0438 -3209.379 
-1717.770 -292.6493 -3310.998 
-1681.202 -254.7246 -3303.506 
-1640.566 -209.8502 -3295.720 
-1604.324 -154.7293 -3271.559 
-1574.540 -115.7662 -3258.650 
-1538.147 -66.75209 -3229.978 
-1746.316 -261.7926 -3353.298 
-1709.683 -209.0947 -3340.512 
-1664.073 -170.8339 -3335.929 
-1633.574 -119.3655 -3310.048 
-1605.995 -77.62244 -3281.659 
-1571.852 -28.18876 -3271.966 
-1772.177 -216.4974 -3394.371 
-1735.724 -168.3186 -3388.111 
-1698.055 -127.5496 -3369.168 
-1672.528 -77.81444 -3342.023 
-1644.206 -34.37295 -3323.451 
-1605.589 11.87960 -3299.907 
-1354.265 -501.3410 -3510.120 
-1384.618 -496.3186 -3460.204 
-1413.545 -505.6581 -3404.560 
-1455.356 -510.5307 -3355.087 
-1478.977 -516.3353 -3303.920 
-1508.761 -510.4544 -3250.866 
-1535.779 -503.1736 -3196.269 
-1567.536 -518.3321 -3151.397 
-1384.617 -451.8008 -3520.612 
-1418.044 -459.2663 -3476.133 
-1457.883 -464.8545 -3420.714 
-1485.838 -467.0813 -3379.634 
-1518.845 -474.1577 -3329.106 
-1553.097 -469.7092 -3271.128 
-1563.937 -460.4532 -3214.618 
-1606.560 -475.7985 -3173.869 
-1580.869 -416.1852 -3286.467 
-1619.660 -430.2512 -3244.077 
-1652.603 -435.2629 -3193.346 
-1502.919 -348.5685 -3307.343 
-1449.720 -282.6729 -3277.251 
-1401.214 -217.6983 -3251.361 
-1647.928 -380.4629 -3255.773 
-1684.217 -398.1845 -3207.740 
-1691.090 -348.5289 -3282.579 
-1731.480 -360.9785 -3229.172 
-1738.824 -318.0759 -3305.255 
-1766.052 -313.0747 -3255.210 
-1777.980 -271.8253 -3329.010 
-1806.872 -274.9894 -3280.346 
-1571.391 -35.29570 -3269.684 
-1776.260 -222.2120 -3400.418 
-1817.360 -239.2541 -3351.274 
-1842.763 -237.7517 -3303.105 
-1333.763 -517.9518 -3427.258 
-1372.540 -522.5639 -3372.924 
-1391.473 -442.1592 -3520.296 
-1421.848 -432.9962 -3480.899 
-1460.165 -428.2102 -3432.546 
-1498.827 -426.2100 -3380.936 
-1538.426 -417.2145 -3334.822 
-1363.877 -382.1548 -3510.135 
-1402.907 -386.8406 -3461.827 
-1435.993 -379.1140 -3416.177 
-1477.106 -374.6407 -3362.336 
-1511.884 -363.2775 -3315.362 
-1334.743 -345.7489 -3491.610 
-1369.632 -339.3700 -3440.972 
-1400.003 -326.5906 -3388.050 
-1442.830 -321.7241 -3345.848 
-1294.561 -291.8719 -3471.467 
-1334.572 -291.3110 -3425.010 
-1375.649 -284.8766 -3370.194 
-1406.039 -275.3200 -3328.885 
-1444.966 -272.4050 -3275.936 
-1264.159 -250.2756 -3449.130 
-1297.785 -248.8874 -3395.666 
-1336.456 -236.1243 -3354.021 
-1375.765 -229.6899 -3300.562 
-1410.441 -230.6439 -3258.528 
-1237.064 -205.6219 -3426.614 
-1267.742 -197.3055 -3381.159 
-1308.295 -195.7030 -3335.757 
-1350.093 -180.4332 -3285.686 
-1577.666 -407.2941 -3285.225 
-1547.601 -356.6920 -3275.949 
-1477.632 -318.8388 -3297.513 
-1521.816 -307.4052 -3246.984 
-1479.623 -267.4468 -3223.324 
-1449.740 -218.1971 -3211.917 
-1388.508 -174.8474 -3238.993 
-1423.399 -174.0415 -3194.800 
-1568.519 -29.65674 -3265.957 
-1760.728 -233.5442 -3388.414 
-1711.698 -203.8717 -3357.728 
-1666.280 -165.6734 -3337.712 
-1648.634 -108.9377 -3324.011 
-1634.476 -41.49888 -3310.022 
-673.0068 -554.5306 -3373.960 
-637.0581 -506.7743 -3359.054 
-612.7223 -458.0620 -3326.180 
-572.5291 -413.7122 -3317.702 
-540.9066 -374.6958 -3282.739 
-508.7869 -320.7096 -3262.401 
-479.1347 -279.7287 -3246.067 
-446.5517 -231.9324 -3222.421 
-703.5154 -514.2191 -3408.872 
-680.0178 -464.0466 -3386.859 
-646.6189 -425.2130 -3362.287 
-608.3290 -378.0639 -3338.545 
-584.2770 -330.7310 -3303.282 
-555.8400 -289.9586 -3283.282 
-517.9661 -240.6509 -3257.344 
-491.9572 -199.2647 -3242.089 
-735.6284 -471.0583 -3444.468 
-715.6181 -427.8242 -3409.630 
-684.7150 -382.2256 -3391.510 
-652.4868 -338.0169 -3363.518 
-622.0418 -289.8264 -3332.116 
-596.4224 -250.2261 -3304.100 
-558.4609 -201.3780 -3282.759 
-525.0462 -153.3863 -3267.702 
-770.7473 -440.2170 -3471.260 
-736.7102 -390.2066 -3450.727 
-715.5579 -348.9496 -3417.155 
-688.8478 -302.0732 -3386.204 
-653.4864 -249.3045 -3377.277 
-632.3477 -208.6685 -3330.727 
-591.3131 -159.1177 -3315.422 
-567.6177 -112.6003 -3297.372 
-815.3600 -401.4555 -3488.462 
-772.4010 -346.8722 -3484.533 
-753.6894 -303.1062 -3451.081 
-726.9206 -263.2451 -3424.512 
-688.3892 -213.6357 -3409.906 
-654.1456 -163.8586 -3389.235 
-627.4659 -124.4904 -3353.632 
-592.0815 -77.69146 -3337.872 
-848.4617 -362.9877 -3527.869 
-816.7125 -315.5686 -3511.380 
-784.4222 -261.8631 -3490.359 
-751.7772 -224.3075 -3463.210 
-717.6759 -177.5558 -3435.100 
-689.4739 -127.6805 -3417.978 
-656.7485 -85.69888 -3395.995 
-625.4388 -39.45121 -3379.678 
-883.6301 -318.4771 -3565.574 
-845.5370 -271.7641 -3548.537 
-823.9788 -231.6415 -3496.577 
-780.2280 -177.9347 -3500.006 
-752.1641 -135.7731 -3477.537 
-719.2194 -89.34931 -3445.935 
-683.2876 -44.93978 -3435.910 
-651.4545 2.762905 -3407.734 
-918.7496 -284.3698 -3591.160 
-888.9705 -230.5012 -3573.292 
-854.8939 -187.1600 -3546.662 
-826.2502 -138.6625 -3511.938 
-783.5404 -93.65600 -3503.333 
-759.2006 -54.08316 -3482.936 
-731.4094 -3.076206 -3442.679 
-701.7916 41.08777 -3425.117 
-729.9185 78.83617 -3459.441 
-732.8011 -556.8963 -3424.310 
-697.5016 -501.9772 -3405.318 
-719.2560 -434.8424 -3410.459 
-702.3550 -321.4829 -3399.509 
-668.8032 -265.4948 -3380.356 
-647.6881 -248.4864 -3366.301 
-701.3956 -526.2657 -3401.126 
-714.1681 -428.2984 -3416.688 
-692.6871 -370.4874 -3396.131 
-645.2120 -257.1117 -3374.552 
-713.5453 -279.0002 -3408.905 
-652.3342 -184.6354 -3364.512 
-620.8016 -121.3903 -3350.978 
-585.7690 -91.47652 -3332.062 
-930.2950 -262.7667 -3603.932 
-897.3685 -220.4465 -3586.022 
-870.0818 -164.6692 -3562.835 
-855.7900 -108.7517 -3548.876 
-774.1387 -22.59060 -3500.572 
-753.9048 31.58292 -3487.250 
-391.8445 -869.1893 -3122.685 
-366.3714 -820.3505 -3103.323 
-328.6363 -771.2712 -3080.687 
-299.2883 -731.1427 -3051.370 
-277.2120 -681.9128 -3013.326 
-247.9142 -637.4999 -2990.229 
-211.4864 -592.3394 -2975.258 
-179.8477 -543.5756 -2952.599 
-430.6748 -827.0347 -3153.198 
-397.7980 -785.4572 -3141.117 
-367.2206 -731.1326 -3116.161 
-329.6106 -690.1827 -3098.965 
-311.7442 -641.1181 -3053.163 
-280.4878 -596.1076 -3029.096 
-244.0250 -550.5079 -3006.647 
-216.0933 -511.5619 -2986.394 
-462.2442 -792.2911 -3185.767 
-434.4798 -746.5887 -3166.737 
-402.5456 -693.1384 -3145.331 
-372.0749 -652.2864 -3118.423 
-340.4186 -600.2637 -3096.144 
-315.8480 -557.9251 -3063.053 
-273.4880 -518.6262 -3040.795 
-240.4977 -472.9022 -3024.428 
-498.7510 -753.4786 -3220.721 
-471.0425 -697.9512 -3188.231 
-436.1487 -657.7535 -3172.719 
-407.3564 -610.5549 -3149.599 
-374.5136 -566.4977 -3116.103 
-352.4904 -522.5300 -3092.750 
-311.7042 -471.6169 -3071.623 
-287.1767 -426.6359 -3046.248 
-537.8494 -707.9734 -3244.161 
-503.1932 -668.2435 -3223.018 
-468.3792 -614.3214 -3205.718 
-444.4320 -569.9976 -3175.899 
-413.5744 -530.3251 -3146.046 
-387.1661 -482.0890 -3125.657 
-346.5582 -436.0583 -3103.400 
-313.2871 -388.5710 -3085.176 
-571.2557 -670.0269 -3280.487 
-527.8975 -628.4301 -3269.381 
-503.9663 -583.5207 -3233.915 
-485.5476 -532.2825 -3204.158 
-453.4160 -491.8125 -3181.957 
-414.0355 -443.9034 -3154.788 
-382.8033 -395.1787 -3133.313 
-345.5980 -349.3331 -3116.738 
-594.0452 -632.4821 -3319.430 
-567.4188 -588.0145 -3290.650 
-544.0295 -537.2882 -3260.071 
-520.2780 -499.0984 -3221.222 
-482.9671 -446.5733 -3207.207 
-452.3025 -403.6267 -3182.872 
-415.2621 -354.9233 -3167.437 
-387.6652 -310.5557 -3146.717 
-634.1334 -596.5181 -3344.998 
-602.6812 -544.8386 -3327.615 
-563.3501 -504.1338 -3313.343 
-540.9514 -457.3931 -3282.768 
-522.6927 -410.8202 -3231.282 
-485.8090 -362.8975 -3225.164 
-450.5388 -319.9240 -3194.617 
-418.0721 -274.0537 -3177.274 
-444.7122 -236.6398 -3225.779 
-291.4933 -711.3735 -3036.964 
-566.1860 -744.4501 -3263.705 
-504.8774 -571.3886 -3224.486 
-529.3072 -515.1610 -3238.593 
-523.6268 -411.0681 -3232.103 
-523.2273 -400.5140 -3225.418 
-291.2857 -656.2191 -3038.446 
-271.9546 -606.6906 -3026.100 
-244.9721 -558.3913 -3000.335 
-210.9308 -506.6421 -2978.935 
-551.2817 -697.6364 -3258.789 
-510.8216 -653.7271 -3234.672 
-478.8081 -611.2358 -3215.688 
-525.1793 -487.8885 -3235.139 
-466.8782 -380.6084 -3201.567 
-425.6864 -349.6630 -3168.386 
-399.7149 -291.9901 -3158.924 
-524.1729 -404.1740 -3232.479 
-199.9079 -1019.734 -2930.445 
-127.0987 -925.9594 -2890.769 
-96.03922 -877.3284 -2864.155 
-258.4153 -1025.659 -2986.583 
-231.4840 -978.4681 -2965.391 
-198.9435 -929.1086 -2947.077 
-163.9095 -889.0253 -2931.792 
-135.2940 -839.9382 -2902.391 
-106.5277 -795.0006 -2872.189 
-77.06348 -750.6014 -2844.996 
-42.37163 -703.7609 -2830.318 
-302.9872 -979.7389 -3012.217 
-273.8259 -941.2750 -2991.925 
-236.8638 -891.4874 -2976.329 
-207.1481 -848.6459 -2949.417 
-175.0951 -797.3442 -2923.073 
-135.0200 -752.9004 -2906.015 
-109.8398 -708.2148 -2888.103 
-70.18387 -661.3121 -2863.287 
-327.5731 -939.8195 -3051.363 
-298.9079 -893.7990 -3032.373 
-265.1162 -849.0858 -3005.387 
-236.2482 -804.7509 -2988.720 
-205.7290 -761.2419 -2965.624 
-169.7607 -717.6499 -2934.815 
-143.3263 -669.9872 -2906.329 
-112.7736 -621.5552 -2896.495 
-366.9890 -903.9706 -3074.926 
-336.4814 -861.7795 -3059.760 
-305.2208 -815.3145 -3036.856 
-267.5908 -765.5125 -3018.335 
-238.1301 -722.7297 -2994.088 
-209.0098 -672.7030 -2961.598 
-176.8761 -629.0508 -2944.376 
-137.7107 -588.4670 -2931.079 
-179.4940 -546.5129 -2957.657 
-223.8348 -1043.993 -2940.066 
-174.0049 -971.3192 -2902.674 
-164.8226 -968.3416 -2899.358 
-81.32254 -841.6687 -2841.519 
-186.7799 -1028.335 -2918.284 
-126.3659 -930.8591 -2874.516 
-88.87477 -890.1686 -2852.739 
-238.1041 -1057.110 -2945.549 
-173.2387 -971.7153 -2904.699 
-76.28869 -822.9739 -2844.694 
-61.42170 -765.2385 -2833.080 
-26.41961 -726.2343 -2808.284 
-381.4398 -887.4847 -3093.507 
-355.4215 -839.0768 -3079.030 
-316.7646 -798.2742 -3054.143 
-298.6820 -738.0167 -3040.647 
-1069.125 -1531.682 -1765.596 
-1257.155 -1491.875 -1359.440 
-1218.935 -1445.808 -1355.828 
-1174.571 -1408.655 -1355.349 
-1143.988 -1362.552 -1337.285 
-1111.470 -1309.570 -1307.345 
-1101.612 -1264.776 -1249.505 
-1144.424 -1494.723 -1721.921 
-1324.037 -1498.941 -1421.880 
-1294.788 -1454.191 -1395.075 
-1243.183 -1414.260 -1397.594 
-1212.852 -1367.579 -1388.232 
-1181.784 -1320.269 -1360.677 
-1145.995 -1271.412 -1335.611 
-1127.223 -1227.399 -1303.546 
-1161.923 -1453.542 -1781.291 
-1220.815 -1462.498 -1685.789 
-1358.886 -1465.160 -1464.605 
-1320.452 -1422.318 -1442.085 
-1288.467 -1376.457 -1429.143 
-1246.592 -1324.005 -1420.321 
-1214.816 -1276.193 -1400.010 
-1183.338 -1233.317 -1364.311 
-1182.833 -1189.077 -1294.108 
-1199.854 -1417.209 -1811.089 
-1239.636 -1419.530 -1750.123 
-1303.411 -1417.917 -1638.741 
-1392.188 -1428.803 -1488.847 
-1358.818 -1373.931 -1461.954 
-1324.278 -1331.402 -1455.683 
-1274.068 -1284.111 -1449.671 
-1239.503 -1244.824 -1445.790 
-1221.106 -1195.874 -1395.460 
-1199.283 -1152.859 -1359.657 
-1369.065 -1383.379 -1615.794 
-1428.119 -1389.190 -1518.667 
-1397.376 -1342.792 -1492.045 
-1350.570 -1292.628 -1489.490 
-1301.706 -1247.438 -1492.257 
-1273.984 -1202.721 -1470.738 
-1255.542 -1153.006 -1421.592 
-1242.131 -1116.342 -1378.292 
-1436.409 -1347.164 -1595.484 
-1450.681 -1343.345 -1564.477 
-1425.804 -1303.766 -1529.432 
-1382.911 -1253.441 -1541.274 
-1339.404 -1210.087 -1521.470 
-1306.212 -1163.941 -1502.590 
-1293.174 -1119.380 -1442.868 
-1280.541 -1073.172 -1409.158 
-1393.388 -1299.633 -1752.383 
-1403.879 -1306.717 -1748.743 
-1446.394 -1301.271 -1659.440 
-1459.641 -1308.018 -1635.958 
-1468.358 -1264.697 -1555.303 
-1425.198 -1211.019 -1551.224 
-1386.488 -1166.449 -1545.427 
-1346.027 -1118.982 -1527.417 
-1313.387 -1074.371 -1505.266 
-1312.411 -1032.647 -1436.741 
-1498.273 -1263.693 -1676.103 
-1503.255 -1270.669 -1663.902 
-1498.229 -1224.835 -1585.771 
-1460.575 -1179.900 -1584.441 
-1419.523 -1126.407 -1571.878 
-1390.371 -1088.956 -1547.288 
-1357.951 -1037.367 -1520.192 
-1355.818 -996.3916 -1457.080 
-1104.292 -1545.634 -1723.702 
-1134.359 -1545.697 -1677.224 
-1166.338 -1541.633 -1618.143 
-1190.397 -1548.023 -1572.811 
-1225.158 -1555.065 -1521.425 
-1261.822 -1553.204 -1467.232 
-1286.989 -1548.296 -1414.609 
-1199.400 -1435.684 -1364.017 
-1104.463 -1308.578 -1305.584 
-1174.247 -1503.125 -1698.776 
-1203.822 -1496.040 -1643.913 
-1232.992 -1510.141 -1593.319 
-1266.649 -1515.377 -1540.479 
-1295.173 -1505.005 -1484.474 
-1323.530 -1509.553 -1437.682 
-1138.579 -1487.019 -1743.854 
-1260.154 -1428.972 -1401.395 
-1119.031 -1230.863 -1315.810 
-1242.271 -1463.177 -1660.076 
-1272.969 -1463.999 -1608.325 
-1307.474 -1469.080 -1560.063 
-1330.913 -1467.094 -1510.341 
-1179.181 -1452.623 -1765.726 
-1205.783 -1448.101 -1711.122 
-1177.333 -1214.926 -1345.928 
-1219.173 -1417.896 -1794.172 
-1306.036 -1422.771 -1628.627 
-1340.669 -1427.614 -1582.813 
-1375.531 -1427.756 -1529.523 
-1242.492 -1414.379 -1731.592 
-1271.527 -1410.834 -1682.413 
-1376.668 -1389.167 -1609.238 
-1415.521 -1390.681 -1549.881 
-1253.520 -1371.339 -1804.150 
-1287.881 -1376.635 -1757.637 
-1308.950 -1374.160 -1703.161 
-1345.853 -1377.038 -1650.886 
-1318.391 -1263.515 -1494.941 
-1263.510 -1189.360 -1468.629 
-1448.959 -1344.463 -1573.729 
-1288.388 -1325.587 -1829.839 
-1317.380 -1335.714 -1778.816 
-1350.106 -1334.476 -1727.275 
-1389.022 -1341.618 -1671.596 
-1416.580 -1338.429 -1627.542 
-1385.044 -1263.828 -1536.130 
-1297.380 -1148.891 -1481.923 
-1400.099 -1298.258 -1752.183 
-1455.967 -1302.408 -1646.263 
-1332.474 -1287.476 -1852.856 
-1358.199 -1295.977 -1801.925 
-1426.030 -1300.680 -1693.641 
-1487.324 -1304.075 -1590.889 
-1409.526 -1205.933 -1547.933 
-1313.110 -1066.065 -1489.893 
-1503.013 -1266.240 -1667.562 
-1373.627 -1249.193 -1875.273 
-1400.636 -1249.585 -1821.796 
-1438.113 -1267.423 -1771.003 
-1463.170 -1267.307 -1718.177 
-1519.401 -1257.758 -1611.376 
-1469.560 -1192.321 -1585.176 
-1342.001 -1001.207 -1500.356 
-1128.072 -1501.058 -1738.849 
-1228.181 -1430.907 -1383.937 
-1186.381 -1472.341 -1697.862 
-1345.479 -1467.135 -1454.559 
-1320.932 -1428.869 -1426.383 
-1192.190 -1444.422 -1777.437 
-1250.849 -1440.771 -1667.008 
-1195.473 -1146.585 -1358.723 
-1238.372 -1394.742 -1799.992 
-1305.669 -1416.596 -1634.400 
-1293.774 -1258.596 -1483.820 
-1244.985 -1234.871 -1457.406 
-1400.975 -1357.989 -1614.574 
-1368.052 -1260.859 -1523.609 
-1401.163 -1303.924 -1754.444 
-1441.045 -1315.848 -1642.230 
-1458.237 -1333.030 -1581.115 
-1400.395 -1232.411 -1541.066 
-1304.235 -1096.877 -1482.446 
-1401.730 -1296.275 -1758.416 
-1447.762 -1189.824 -1570.711 
-1426.117 -1241.990 -1833.163 
-1505.225 -1260.287 -1673.788 
-1699.464 -232.7171 -2431.236 
-1632.038 -189.1802 -2450.992 
-1569.393 -141.4646 -2498.255 
-1800.144 -199.4337 -2339.395 
-1731.145 -150.0776 -2380.544 
-1651.073 -101.2170 -2436.510 
-1849.384 -161.3732 -2355.060 
-1797.254 -110.1437 -2351.479 
-1720.862 -62.75461 -2420.313 
-1857.588 -72.12109 -2351.575 
-1779.733 -31.08529 -2391.989 
-1625.759 21.27782 -2598.801 
-1830.501 7.911398 -2404.947 
-1685.147 64.47215 -2580.809 
-1896.361 52.57244 -2392.427 
-1742.562 95.07993 -2575.109 
-1933.457 89.78415 -2406.278 
-1963.354 84.33326 -2357.928 
-1805.584 135.3757 -2558.110 
-1817.916 178.9460 -2630.400 
-1721.269 -248.7968 -2397.353 
-1755.287 -249.5326 -2348.283 
-1781.938 -253.6029 -2291.858 
-1819.607 -250.9314 -2242.152 
-1674.620 -219.3891 -2436.426 
-1607.785 -171.9977 -2466.915 
-1556.105 -141.9170 -2510.973 
-1819.239 -210.9032 -2313.920 
-1853.154 -205.1612 -2263.998 
-1772.349 -182.1404 -2357.006 
-1660.978 -110.8778 -2426.387 
-1717.406 -140.7255 -2385.067 
-1585.516 -76.53482 -2520.250 
-1626.327 -94.58904 -2468.700 
-1859.784 -166.0496 -2331.610 
-1887.374 -164.9996 -2287.540 
-1737.840 -76.39700 -2398.964 
-1783.786 -107.5350 -2364.439 
-1618.080 -29.70397 -2536.496 
-1654.671 -38.36226 -2486.362 
-1691.969 -60.43976 -2441.303 
-1879.524 -99.34660 -2342.698 
-1910.525 -99.40949 -2293.361 
-1819.623 -52.74002 -2374.128 
-1647.943 15.00584 -2557.587 
-1683.333 10.60214 -2509.833 
-1731.151 -13.97514 -2458.186 
-1764.534 -13.94175 -2411.834 
-1846.357 4.123937 -2391.998 
-1891.934 -25.98818 -2352.936 
-1919.018 -26.31063 -2299.303 
-1689.037 59.97554 -2578.608 
-1718.473 53.53269 -2531.510 
-1760.117 35.20320 -2481.762 
-1801.640 19.44304 -2430.991 
-1918.025 32.94243 -2359.151 
-1944.048 37.00824 -2309.808 
-1759.216 90.54870 -2549.818 
-1792.794 83.46629 -2501.184 
-1835.565 65.60262 -2456.924 
-1873.712 48.43484 -2403.828 
-1722.568 98.18036 -2601.656 
-1958.003 74.44345 -2380.208 
-1839.218 122.0776 -2516.222 
-1876.634 109.5933 -2472.210 
-1920.062 93.61981 -2427.730 
-1975.099 96.15596 -2325.141 
-1766.190 144.5460 -2613.107 
-1792.772 142.0094 -2565.993 
-1837.679 167.7141 -2588.522 
-1880.114 161.6165 -2544.701 
-1909.650 153.6196 -2499.535 
-1953.820 134.9348 -2449.515 
-1990.052 129.1934 -2404.733 
-2009.828 134.9454 -2344.204 
-1807.446 174.2525 -2641.210 
-1602.660 -245.9680 -2540.858 
-1633.912 -246.4122 -2485.567 
-1674.224 -242.0301 -2436.587 
-1579.587 -202.8501 -2520.487 
-1623.862 -192.7039 -2474.769 
-1554.244 -143.1743 -2505.668 
-1723.760 -224.0431 -2395.477 
-1765.134 -215.6174 -2349.032 
-1662.135 -178.8269 -2425.137 
-1717.100 -160.2469 -2389.076 
-1612.165 -125.6689 -2462.373 
-1787.575 -123.0431 -2354.820 
-1667.242 -95.33884 -2426.285 
-1868.324 -143.9219 -2343.463 
-1907.991 -139.9630 -2292.509 
-1740.089 -59.90707 -2400.093 
-1886.651 -49.88326 -2344.392 
-1912.424 -61.19315 -2294.040 
-1863.288 29.29484 -2395.060 
-1689.133 64.15450 -2575.102 
-1950.453 55.45396 -2316.856 
-1778.825 117.3434 -2563.076 
-1976.777 108.8035 -2392.880 
-1808.345 153.2554 -2572.902 
-1817.553 -175.2081 -3251.561 
-1785.367 -135.3232 -3219.621 
-1743.046 -80.92622 -3209.546 
-1718.732 -38.76646 -3179.738 
-1753.649 -1.945591 -3216.494 
-1720.499 44.41422 -3205.425 
-1877.769 -192.3031 -3315.881 
-1795.991 -72.24181 -3263.615 
-1764.199 -28.52688 -3241.158 
-1919.984 -141.4137 -3337.235 
-1915.716 -140.3887 -3340.136 
-1759.507 -58.74897 -3251.429 
-1862.262 -115.7412 -3310.218 
-1823.337 -84.91103 -3277.917 
-1760.854 23.20122 -3242.338 
-1735.649 69.51758 -3231.826 
-1913.247 -144.9104 -3337.045 
-1323.340 -141.1176 -3250.967 
-1291.376 -87.18787 -3224.745 
-1261.419 -48.55250 -3204.010 
-1228.643 -3.750861 -3184.886 
-1190.590 46.90342 -3175.494 
-1169.651 87.36249 -3130.512 
-1137.193 134.3156 -3119.946 
-1098.157 182.4178 -3112.652 
-1420.153 -103.2670 -3172.969 
-1385.424 -51.67319 -3154.207 
-1351.595 -7.280152 -3139.671 
-1322.122 35.18163 -3111.682 
-1294.535 83.89025 -3089.742 
-1259.476 126.6589 -3073.663 
-1220.578 176.6883 -3053.341 
-1194.896 220.3901 -3023.236 
-1468.918 -56.30363 -3197.030 
-1429.068 -12.54622 -3173.187 
-1396.133 27.81276 -3150.713 
-1363.150 78.20920 -3137.517 
-1332.255 122.7995 -3113.849 
-1297.214 165.8339 -3095.269 
-1262.853 217.5567 -3067.012 
-1243.091 263.6393 -3040.474 
-1508.961 -19.63479 -3211.761 
-1467.642 19.36893 -3189.294 
-1444.898 70.90572 -3166.343 
-1405.115 116.0555 -3152.969 
-1376.315 159.9334 -3134.102 
-1341.343 210.7888 -3108.792 
-1310.199 254.5775 -3083.427 
-1276.332 301.5197 -3066.113 
-1543.422 15.99265 -3240.781 
-1511.570 61.84469 -3218.747 
-1473.406 105.9160 -3209.384 
-1442.115 158.5522 -3185.008 
-1411.970 197.2087 -3151.538 
-1382.699 240.4056 -3131.982 
-1347.484 291.9299 -3115.090 
-1316.913 340.5253 -3088.491 
-1575.308 59.15202 -3285.932 
-1535.266 99.86635 -3260.731 
-1502.971 142.5104 -3244.492 
-1471.958 189.8742 -3216.865 
-1441.283 237.8470 -3191.727 
-1411.915 285.1111 -3181.921 
-1376.297 330.7233 -3159.683 
-1341.225 378.8671 -3129.128 
-1558.630 -16.03356 -3265.462 
-1201.260 -161.0514 -3410.859 
-1231.703 -155.5714 -3361.656 
-1277.558 -148.3535 -3315.787 
-1308.360 -144.0790 -3262.082 
-1163.823 -114.0243 -3382.070 
-1197.666 -106.3745 -3344.010 
-1242.450 -102.8572 -3292.042 
-1279.943 -92.11549 -3248.317 
-1129.652 -63.53106 -3368.705 
-1170.912 -58.61618 -3320.477 
-1205.311 -54.86955 -3267.803 
-1240.305 -49.15960 -3225.792 
-1101.262 -17.83075 -3343.011 
-1140.383 -18.42287 -3300.101 
-1178.164 -5.862294 -3250.207 
-1213.139 -5.751869 -3204.969 
-1064.991 29.23439 -3330.267 
-1102.804 34.28192 -3278.748 
-1142.282 33.93040 -3230.884 
-1179.751 40.40914 -3187.347 
-1036.548 74.99292 -3305.270 
-1071.748 81.99142 -3258.075 
-1108.701 87.30255 -3208.937 
-1148.148 88.60946 -3162.237 
-1001.349 111.4390 -3286.393 
-1033.163 118.4397 -3234.626 
-1073.217 126.2950 -3193.020 
-1118.428 132.9991 -3143.007 
-932.3503 154.4221 -3318.050 
-965.5725 161.8751 -3266.532 
-999.8169 169.0230 -3214.479 
-1045.710 178.0839 -3171.176 
-1079.655 181.5173 -3121.855 
-1352.485 -132.2221 -3221.011 
-1383.891 -124.3504 -3171.698 
-1316.062 -88.85529 -3201.240 
-1354.431 -79.13641 -3151.691 
-1287.270 -40.04401 -3180.799 
-1323.138 -32.16753 -3127.355 
-1260.587 8.643140 -3162.197 
-1291.936 14.92914 -3111.141 
-1223.630 59.27372 -3143.249 
-1262.287 59.11435 -3092.089 
-1185.762 98.69406 -3114.432 
-1218.484 95.91788 -3069.587 
-1152.133 143.3841 -3098.375 
-1186.144 146.6411 -3045.332 
-1123.443 187.2914 -3070.873 
-1155.382 190.1194 -3025.560 
-1563.234 37.14700 -3268.807 
-1525.693 86.97902 -3242.629 
-1494.829 132.6590 -3220.161 
-1466.814 178.7541 -3206.104 
-1446.577 234.6102 -3190.704 
-1403.995 281.7199 -3168.964 
-1369.087 330.0903 -3153.262 
-1345.056 372.2852 -3132.571 
-1734.585 92.64410 -3094.103 
-1758.689 86.19995 -3047.634 
-1751.514 177.3284 -2904.847 
-1782.978 216.9846 -2765.910 
-1796.271 129.0287 -3067.648 
-1856.562 119.8364 -2976.621 
-1876.424 170.5482 -2858.238 
-1839.383 210.3070 -2843.723 
-1853.839 162.1351 -3070.765 
-1946.230 159.8462 -2902.791 
-1807.182 207.4492 -3059.665 
-1914.938 207.5229 -2888.646 
-1797.828 254.5020 -3018.249 
-1888.525 254.2629 -2858.001 
-1762.055 301.3689 -2997.882 
-1710.415 345.1219 -3010.780 
-1666.362 394.9062 -3005.154 
-1624.633 436.9237 -2992.255 
-1589.581 490.1714 -2986.212 
-1881.699 384.5310 -2803.466 
-1857.031 422.0658 -2754.109 
-1826.015 470.5074 -2744.756 
-1788.277 518.8664 -2738.414 
-1704.454 90.51986 -3141.396 
-1770.467 89.44102 -3034.787 
-1736.140 87.68076 -3090.074 
-1753.780 181.6983 -2886.055 
-1771.658 202.9765 -2827.691 
-1787.973 217.1355 -2771.484 
-1808.782 227.1363 -2712.797 
-1743.842 100.4474 -3232.620 
-1750.955 121.6717 -3169.174 
-1777.807 124.3278 -3110.774 
-1807.183 123.7202 -3054.099 
-1830.075 123.5477 -3005.760 
-1832.097 252.3233 -2791.954 
-1858.092 254.9913 -2741.346 
-1881.043 152.6070 -3032.935 
-1915.067 147.5607 -2987.503 
-1818.515 207.8498 -3066.397 
-1803.830 215.2917 -3061.881 
-1889.866 269.9922 -2826.436 
-1905.351 288.7521 -2762.137 
-1721.152 341.2683 -3001.339 
-1921.442 357.9059 -2770.550 
-1693.422 81.08208 -3134.645 
-1747.385 119.2561 -2956.675 
-1700.868 145.1390 -2923.609 
-1742.013 87.12914 -3087.584 
-1771.917 92.20304 -3041.853 
-1824.115 108.9495 -2994.148 
-1842.576 150.4817 -2876.641 
-1773.652 190.3527 -2900.466 
-1818.346 199.3387 -2850.070 
-1790.076 219.6802 -2773.233 
-1848.580 249.0760 -2738.064 
-1743.488 149.9662 -3222.987 
-1768.538 151.8423 -3174.155 
-1794.782 146.7705 -3118.791 
-1845.572 129.2086 -3013.231 
-1698.117 192.0916 -3208.094 
-1735.989 200.7071 -3156.478 
-1777.340 202.5555 -3103.173 
-1673.709 244.4498 -3186.416 
-1706.531 248.0138 -3135.106 
-1740.750 252.9970 -3087.151 
-1782.237 253.1281 -3041.753 
-1635.006 286.4682 -3159.687 
-1676.703 288.7077 -3115.143 
-1713.774 302.4240 -3064.463 
-1736.113 296.7830 -3012.864 
-1608.409 329.9174 -3148.937 
-1639.491 338.0890 -3092.046 
-1678.165 345.3954 -3053.059 
-1573.755 381.2357 -3122.717 
-1611.280 386.2543 -3080.569 
-1649.946 391.8776 -3025.703 
-1543.838 422.4778 -3102.490 
-1575.570 433.8933 -3056.979 
-1613.751 442.0703 -3008.475 
-1513.116 474.1455 -3086.572 
-1549.432 477.5804 -3039.509 
-1582.240 491.0459 -2991.229 
-1885.376 176.6987 -3037.317 
-1927.017 174.8050 -2990.365 
-1955.841 185.4442 -2939.918 
-1809.942 211.7453 -3060.992 
-1851.634 218.3425 -3016.173 
-1890.828 224.6120 -2960.773 
-1924.298 225.5289 -2918.488 
-1811.517 262.8884 -2987.081 
-1851.326 257.7974 -2943.236 
-1888.683 267.5791 -2891.974 
-1790.913 317.1501 -2972.937 
-1829.882 315.8336 -2930.096 
-1859.080 318.9279 -2878.704 
-1892.370 325.8219 -2831.773 
-1917.068 307.0991 -2769.376 
-1713.280 350.7007 -2995.815 
-1763.770 362.7851 -2956.224 
-1796.942 370.5849 -2910.944 
-1836.662 374.7502 -2865.326 
-1868.584 377.1123 -2808.366 
-1687.654 400.6107 -2984.799 
-1721.910 399.6619 -2932.686 
-1760.477 408.9500 -2887.296 
-1796.925 417.8335 -2836.840 
-1835.042 422.0411 -2795.089 
-1657.118 444.6081 -2963.633 
-1694.014 451.3453 -2918.059 
-1730.785 454.6641 -2868.648 
-1766.834 462.5439 -2818.099 
-1802.291 466.4694 -2770.719 
-1627.529 497.5980 -2943.266 
-1663.137 496.2374 -2890.158 
-1697.163 504.1520 -2850.337 
-1732.070 510.4420 -2797.408 
-1775.312 520.6489 -2751.633 
-1909.615 381.7865 -2763.586 
-1877.865 427.7467 -2747.066 
-1841.518 470.9728 -2727.059 
-1807.149 523.9318 -2698.937 
-1261.387 -507.3360 -2695.384 
-1282.770 -464.2518 -2770.195 
-1321.098 -427.9004 -2792.091 
-1349.047 -387.9340 -2823.347 
-1371.612 -342.5948 -2887.196 
-1263.105 -500.0236 -2696.104 
-1289.193 -488.8466 -2640.626 
-1316.001 -489.4813 -2586.933 
-1345.783 -483.0432 -2527.051 
-1282.672 -459.9916 -2771.800 
-1298.105 -447.6287 -2705.628 
-1315.697 -437.7777 -2649.401 
-1344.719 -440.8481 -2599.198 
-1384.372 -443.6208 -2546.370 
-1316.742 -412.7813 -2789.646 
-1334.879 -402.8142 -2729.351 
-1351.684 -391.3736 -2671.397 
-1381.948 -388.7975 -2623.004 
-1414.816 -399.7806 -2564.994 
-1351.945 -372.1272 -2811.658 
-1373.221 -363.8131 -2752.369 
-1392.902 -359.9524 -2690.881 
-1421.911 -356.9187 -2636.733 
-1457.079 -348.2569 -2584.286 
-1369.268 -342.2526 -2882.969 
-1382.687 -320.5573 -2822.702 
-1408.090 -316.1060 -2766.220 
-1434.615 -307.8130 -2717.403 
-1461.588 -311.8989 -2663.536 
-1491.704 -315.8322 -2614.029 
-1266.795 -504.6585 -2692.342 
-1278.194 -526.3304 -2634.410 
-1304.140 -531.8901 -2573.632 
-1338.051 -526.8538 -2522.346 
-1273.506 -464.0679 -2769.270 
-1362.380 -352.1961 -2884.668 
-1389.198 -279.1661 -2825.669 
-1409.832 -287.9776 -2774.510 
-1432.558 -296.3128 -2713.601 
-1463.082 -292.1974 -2666.720 
-1498.500 -289.4519 -2613.482 
-1391.725 -227.2197 -2760.861 
-1421.376 -233.7518 -2701.643 
-1444.197 -234.1935 -2651.413 
-1486.492 -227.2374 -2602.446 
