ply
format ascii 1.0
comment FreeCAD generated
element vertex 1555
property float x
property float y
property float z
end_header
-1629.062 -423.1206 -2211.292 
-1669.108 -433.0580 -2169.639 
-1714.978 -434.6437 -2109.154 
-1481.451 -353.4945 -2543.422 
-1527.724 -362.0469 -2498.437 
-1552.741 -380.3666 -2439.315 
-1579.757 -374.1005 -2383.866 
-1604.580 -383.4327 -2327.078 
-1645.667 -386.5992 -2292.468 
-1673.135 -378.4241 -2241.749 
-1702.489 -389.4302 -2183.670 
-1735.035 -376.9885 -2122.220 
-1519.271 -323.5071 -2559.591 
-1550.176 -317.7999 -2509.906 
-1598.512 -320.2200 -2467.358 
-1621.061 -330.9902 -2400.715 
-1647.219 -328.6384 -2347.564 
-1688.310 -336.5740 -2300.604 
-1703.818 -337.4414 -2249.133 
-1739.024 -335.2022 -2196.835 
-1769.104 -344.6811 -2150.902 
-1607.833 -295.8398 -2526.676 
-1635.325 -290.9930 -2489.926 
-1653.907 -280.8234 -2421.619 
-1685.913 -289.2171 -2385.253 
-1720.099 -290.3633 -2320.037 
-1756.163 -285.2836 -2265.207 
-1772.133 -291.9865 -2222.839 
-1394.914 -505.8612 -2478.313 
-1442.981 -495.8253 -2437.827 
-1479.139 -490.0578 -2399.171 
-1513.243 -468.1890 -2345.751 
-1552.593 -471.5137 -2308.549 
-1576.999 -482.5544 -2249.612 
-1611.808 -465.2702 -2200.104 
-1654.118 -456.0786 -2155.896 
-1205.120 -597.1523 -3468.482 
-1312.945 -600.0242 -3280.762 
-1255.637 -556.7415 -3466.994 
-1349.680 -570.1817 -3318.167 
-1335.267 -516.7347 -3449.288 
-1372.309 -530.5233 -3363.226 
-1040.643 -810.4969 -3331.244 
-1082.028 -829.9544 -3278.700 
-1112.380 -818.0652 -3235.464 
-1129.827 -831.0588 -3189.423 
-1171.422 -829.5562 -3125.656 
-1197.143 -830.1959 -3070.713 
-1223.315 -840.3165 -3031.542 
-1263.071 -841.1542 -2969.650 
-1078.080 -775.7149 -3361.882 
-1107.732 -785.0270 -3315.266 
-1136.914 -774.0981 -3243.486 
-1175.597 -781.3298 -3199.643 
-1194.239 -792.0972 -3156.211 
-1241.462 -799.9255 -3101.562 
-1258.091 -790.9857 -3038.893 
-1296.033 -788.0613 -3004.817 
-1118.553 -747.0129 -3374.160 
-1160.812 -748.0547 -3329.644 
-1185.915 -756.4364 -3285.143 
-1216.365 -741.4443 -3232.818 
-1243.607 -755.2217 -3176.059 
-1284.614 -762.0772 -3111.958 
-1299.159 -757.4554 -3065.340 
-1325.628 -749.3243 -3026.930 
-1159.799 -697.1922 -3399.387 
-1190.543 -707.4147 -3352.354 
-1220.108 -707.4690 -3306.349 
-1260.377 -703.3101 -3244.721 
-1290.013 -703.0969 -3201.869 
-1313.428 -708.0415 -3144.271 
-1348.707 -707.8532 -3095.083 
-1375.932 -709.4408 -3034.917 
-1194.294 -648.1720 -3424.436 
-1228.642 -646.2742 -3370.105 
-1251.168 -657.9810 -3308.812 
-1299.432 -669.7246 -3276.421 
-1327.997 -681.3969 -3211.187 
-1356.202 -671.7759 -3171.276 
-1376.471 -672.9671 -3112.008 
-1411.969 -681.0145 -3052.110 
-1316.089 -607.3987 -3270.681 
-1368.148 -628.2290 -3242.203 
-1392.408 -633.6714 -3179.532 
-1419.644 -643.2431 -3141.362 
-1458.323 -627.0862 -3089.427 
-1211.487 -589.9083 -3420.938 
-1248.054 -605.9139 -3375.924 
-1283.076 -588.8327 -3330.026 
-1357.461 -582.8369 -3309.178 
-1393.177 -598.7455 -3263.691 
-1426.386 -595.9921 -3215.420 
-1470.166 -595.6526 -3150.162 
-1476.689 -577.7147 -3090.102 
-1268.172 -549.2433 -3452.257 
-1300.593 -556.9507 -3400.830 
-1320.597 -548.1329 -3342.594 
-1304.830 -519.3628 -3472.863 
-1398.513 -538.6208 -3329.730 
-1437.070 -553.6996 -3280.626 
-1477.768 -546.0929 -3221.483 
-1501.415 -557.8032 -3183.024 
-1523.652 -542.4547 -3128.853 
-1326.871 -528.3581 -3425.119 
-1361.519 -521.1331 -3374.192 
-1201.860 -609.2623 -3428.860 
-1234.237 -625.8531 -3376.292 
-1267.432 -620.1425 -3331.084 
-1288.600 -531.9572 -3477.063 
-1138.138 -1450.851 -1832.402 
-819.0070 -1515.259 -2175.089 
-842.3995 -1510.840 -2123.291 
-886.6853 -1506.311 -2086.868 
-912.2600 -1514.100 -2024.134 
-934.7296 -1516.531 -1982.887 
-965.3601 -1529.581 -1928.479 
-1007.705 -1532.054 -1867.831 
-1038.338 -1523.898 -1828.500 
-1057.468 -1535.557 -1763.073 
-850.6949 -1474.812 -2214.238 
-898.2668 -1469.318 -2150.510 
-924.6992 -1462.442 -2109.933 
-956.2928 -1480.614 -2057.389 
-972.1584 -1478.635 -2004.196 
-1002.118 -1479.731 -1944.060 
-1032.130 -1487.452 -1885.742 
-1066.179 -1481.566 -1834.879 
-1112.487 -1486.016 -1792.339 
-1153.436 -1461.052 -1826.749 
-895.4573 -1430.464 -2236.274 
-922.6613 -1433.834 -2180.709 
-949.2521 -1426.371 -2127.329 
-996.7000 -1437.537 -2077.689 
-1023.434 -1436.536 -2018.255 
-1046.780 -1440.757 -1963.482 
-1086.642 -1434.900 -1909.745 
-1113.118 -1445.646 -1864.572 
-927.8804 -1389.018 -2253.212 
-973.6459 -1386.929 -2195.264 
-1006.414 -1401.528 -2142.607 
-1035.740 -1397.303 -2098.448 
-1054.814 -1402.991 -2048.253 
-1089.928 -1402.391 -1991.010 
-1110.061 -1395.797 -1930.798 
-1142.673 -1402.741 -1886.220 
-1182.086 -1415.204 -1844.671 
-986.0760 -1345.888 -2272.643 
-1016.730 -1359.560 -2210.784 
-1035.373 -1355.276 -2168.164 
-1060.370 -1347.740 -2122.006 
-1098.095 -1355.745 -2066.479 
-1126.005 -1366.545 -2007.996 
-1163.393 -1364.625 -1957.872 
-1182.806 -1368.201 -1910.147 
-1215.722 -1365.017 -1856.236 
-1022.666 -1311.412 -2290.717 
-1039.138 -1304.950 -2234.505 
-1083.857 -1322.834 -2192.246 
-1106.324 -1316.278 -2130.291 
-1133.525 -1325.725 -2085.223 
-1161.076 -1318.013 -2044.626 
-1201.861 -1314.491 -1979.177 
-1223.510 -1329.699 -1921.973 
-1255.890 -1333.077 -1877.862 
-1062.866 -1275.681 -2320.865 
-1079.621 -1273.089 -2263.408 
-1121.766 -1280.580 -2212.718 
-1158.311 -1284.985 -2170.323 
-1182.986 -1283.037 -2105.551 
-1208.405 -1290.719 -2051.029 
-1247.951 -1287.150 -2003.729 
-1265.919 -1295.052 -1945.603 
-1307.619 -1285.294 -1900.266 
-1099.213 -1244.944 -2335.664 
-1118.588 -1235.990 -2284.525 
-1166.111 -1234.945 -2240.624 
-1197.600 -1252.308 -2186.734 
-1220.957 -1240.904 -2125.079 
-1241.064 -1245.030 -2077.305 
-1286.382 -1254.077 -2028.164 
-1309.272 -1240.056 -1977.849 
-1334.515 -1256.053 -1932.375 
-1142.659 -1202.262 -2364.608 
-1164.918 -1191.397 -2318.007 
-1193.121 -1200.490 -2263.331 
-1239.881 -1201.149 -2201.554 
-1264.852 -1196.052 -2144.472 
-1296.430 -1198.304 -2109.112 
-1310.510 -1215.971 -2048.993 
-1345.939 -1206.979 -1998.270 
-1117.163 -1494.727 -1793.378 
-1159.477 -1438.594 -1824.217 
-1180.874 -469.8252 -3770.119 
-1147.177 -431.9086 -3761.958 
-1123.162 -380.2675 -3734.285 
-1092.274 -331.6684 -3715.143 
-1051.116 -298.0045 -3703.634 
-1302.701 -397.0164 -3592.585 
-1274.258 -358.1903 -3562.573 
-1240.428 -306.4000 -3538.708 
-1205.768 -257.0704 -3509.011 
-1206.625 -477.9839 -3763.309 
-1239.048 -489.1839 -3712.326 
-1275.343 -503.1706 -3656.674 
-1284.681 -501.0362 -3620.385 
-1317.517 -504.9910 -3558.056 
-1340.023 -431.9778 -3570.952 
-1209.582 -461.8165 -3758.005 
-1234.161 -460.8780 -3708.779 
-1270.755 -460.4048 -3671.852 
-1299.980 -458.9516 -3608.521 
-1343.019 -446.9389 -3573.096 
-1177.701 -406.5739 -3749.387 
-1224.593 -408.0877 -3695.857 
-1263.038 -409.5088 -3646.068 
-1291.005 -395.6240 -3598.835 
-1148.496 -376.2088 -3718.735 
-1193.131 -358.8473 -3676.449 
-1225.659 -350.2262 -3641.748 
-1262.333 -354.3917 -3579.085 
-1116.709 -327.4275 -3701.821 
-1143.096 -319.5884 -3660.910 
-1179.424 -319.3332 -3621.577 
-1218.248 -306.9384 -3558.649 
-1075.394 -276.3548 -3682.416 
-1116.474 -261.1442 -3645.524 
-1142.915 -265.3474 -3590.147 
-1191.322 -262.8065 -3549.326 
-1324.725 -382.2385 -3567.408 
-1285.566 -352.4279 -3533.109 
-1259.539 -302.7924 -3513.688 
-1218.460 -253.3157 -3504.692 
-606.9810 -1142.686 -3217.588 
-569.7465 -1104.077 -3232.448 
-516.2408 -1045.583 -3210.116 
-497.4392 -999.2215 -3193.532 
-456.6263 -947.1320 -3173.517 
-418.2391 -909.1461 -3154.122 
-633.8193 -1098.267 -3252.025 
-599.0920 -1052.601 -3248.608 
-558.2554 -1016.676 -3249.004 
-530.1546 -963.6618 -3226.623 
-502.7919 -909.6196 -3204.821 
-451.2493 -882.0162 -3187.620 
-674.7386 -1072.025 -3285.034 
-622.6090 -1010.387 -3300.769 
-592.1275 -960.7493 -3275.083 
-561.6539 -924.4904 -3241.226 
-537.2422 -868.9958 -3230.379 
-489.5981 -842.9812 -3198.511 
-719.3196 -1014.512 -3308.722 
-654.7080 -972.4893 -3334.502 
-629.9029 -932.2222 -3308.805 
-586.3255 -877.5866 -3281.605 
-569.3643 -844.5078 -3264.568 
-532.9528 -792.8567 -3230.387 
-759.6177 -983.9025 -3349.642 
-697.8365 -945.9910 -3366.074 
-653.3221 -884.6689 -3345.257 
-629.4594 -851.4284 -3303.975 
-594.5300 -791.2309 -3292.942 
-564.4553 -755.2115 -3264.697 
-784.9615 -949.5234 -3382.324 
-737.2856 -899.0048 -3382.650 
-703.6698 -862.8124 -3372.234 
-655.2529 -797.8353 -3344.392 
-624.1741 -771.6342 -3333.207 
-594.1843 -715.6271 -3306.765 
-818.8741 -906.2597 -3420.537 
-778.2328 -861.0480 -3415.289 
-734.7618 -813.6717 -3396.781 
-693.9661 -760.6449 -3388.058 
-666.1888 -718.3724 -3354.018 
-628.7307 -677.7816 -3334.893 
-851.4443 -864.7277 -3446.739 
-808.9924 -830.5800 -3455.108 
-774.6955 -767.2870 -3417.796 
-733.9030 -730.7378 -3405.102 
-696.7810 -685.2074 -3381.145 
-678.6254 -642.3495 -3364.052 
-592.2010 -1133.007 -3217.325 
-656.2135 -1106.667 -3256.765 
-679.0906 -1064.483 -3268.438 
-740.1454 -1027.253 -3292.068 
-671.4598 -978.5485 -3334.120 
-627.4577 -933.6628 -3304.449 
-778.1923 -1003.394 -3315.681 
-709.9710 -960.7222 -3352.741 
-816.1983 -960.6053 -3341.675 
-772.3646 -929.2305 -3378.135 
-819.9229 -900.4061 -3416.200 
-860.3885 -928.2789 -3367.532 
-868.9063 -875.4474 -3445.871 
-890.6562 -876.3431 -3389.398 
-619.6155 -1118.261 -3249.808 
-658.4125 -984.6533 -3322.089 
-627.8292 -935.7113 -3303.926 
-592.7521 -878.2880 -3295.989 
-593.6815 -821.8941 -3283.455 
-565.8589 -763.4662 -3271.670 
-788.0050 -922.3476 -3411.643 
-1426.848 -631.3676 -2507.062 
-1530.437 -688.1200 -2560.875 
-1512.066 -636.7689 -2526.574 
-1529.161 -603.5035 -2394.395 
-1466.647 -558.8808 -2421.440 
-1717.455 -713.2334 -2408.772 
-1752.743 -662.2908 -2282.375 
-1730.063 -621.8436 -2219.273 
-1701.040 -576.6874 -2203.391 
-1657.528 -520.4547 -2194.792 
-1456.284 -897.7070 -2544.505 
-1484.309 -895.9361 -2477.392 
-1512.918 -893.1252 -2431.264 
-1555.301 -898.5953 -2385.241 
-1586.886 -896.5735 -2329.247 
-1598.944 -889.4466 -2285.194 
-1641.428 -897.9855 -2224.902 
-1670.072 -890.1531 -2171.734 
-1498.612 -841.3048 -2556.794 
-1534.158 -849.5787 -2518.085 
-1548.298 -847.4627 -2447.740 
-1596.397 -845.3945 -2397.250 
-1628.160 -857.9493 -2349.855 
-1643.570 -848.9305 -2304.974 
-1678.752 -859.9689 -2247.774 
-1714.440 -855.3216 -2195.222 
-1546.682 -811.3375 -2580.934 
-1577.704 -800.1405 -2531.014 
-1601.558 -819.6784 -2472.530 
-1639.791 -811.9348 -2436.381 
-1651.977 -816.1376 -2378.723 
-1694.504 -819.3289 -2316.161 
-1732.762 -825.1888 -2264.906 
-1746.133 -821.2803 -2221.253 
-1414.779 -645.4764 -2502.507 
-1419.958 -639.1419 -2496.512 
-1555.450 -757.3013 -2595.517 
-1611.209 -768.8565 -2556.565 
-1637.368 -782.5579 -2491.490 
-1672.042 -782.2043 -2459.721 
-1700.033 -774.7165 -2394.436 
-1728.279 -785.2405 -2345.755 
-1765.165 -773.9385 -2303.631 
-1784.285 -779.1581 -2243.441 
-1530.452 -715.0428 -2580.076 
-1517.745 -646.0508 -2501.802 
-1525.500 -635.0982 -2426.463 
-1495.557 -578.6021 -2419.468 
-1427.429 -530.7181 -2435.020 
-1710.900 -707.4289 -2413.161 
-1762.427 -726.4445 -2373.270 
-1792.898 -740.2592 -2317.632 
-1824.477 -743.3841 -2259.768 
-1715.114 -701.1537 -2397.888 
-1733.242 -686.3830 -2348.680 
-1738.749 -662.5449 -2276.786 
-1585.054 -478.4582 -2244.971 
-1634.309 -519.0256 -2205.714 
-1407.654 -650.0550 -2513.090 
-1509.725 -686.9109 -2557.256 
-1472.655 -671.4338 -2531.479 
-1478.951 -606.1190 -2468.288 
-1511.467 -608.9044 -2422.758 
-1415.518 -566.3749 -2513.229 
-1443.393 -562.2824 -2459.906 
-1557.577 -736.7941 -2584.702 
-1603.179 -713.9258 -2542.648 
-1636.950 -718.0325 -2508.174 
-1678.908 -707.0450 -2456.277 
-1574.287 -676.4053 -2524.950 
-1599.865 -671.5460 -2474.759 
-1642.615 -677.2139 -2420.540 
-1678.709 -663.6917 -2371.737 
-1695.672 -657.4639 -2333.224 
-1734.477 -669.9295 -2270.614 
-1534.530 -647.3118 -2508.445 
-1557.670 -626.9146 -2455.253 
-1606.075 -632.3243 -2404.621 
-1626.315 -621.3868 -2362.084 
-1665.670 -634.3502 -2309.910 
-1708.231 -626.9990 -2253.656 
-1562.865 -588.9078 -2388.147 
-1598.742 -586.0783 -2340.416 
-1638.124 -582.5692 -2291.297 
-1665.468 -579.8676 -2235.315 
-1501.368 -539.4213 -2410.308 
-1530.392 -542.5352 -2371.921 
-1562.989 -542.9850 -2319.648 
-1598.525 -536.5803 -2256.797 
-1635.470 -523.6309 -2216.209 
-1715.272 -697.3946 -2396.980 
-1765.380 -702.8655 -2351.685 
-1794.902 -689.5969 -2300.515 
-1822.037 -686.1190 -2257.493 
-1789.591 -649.5331 -2233.107 
-1736.139 -619.9281 -2201.010 
-1709.657 -560.2057 -2180.235 
-1683.344 -517.3343 -2161.496 
-1183.366 -1158.367 -2373.076 
-1204.376 -1154.123 -2339.538 
-1247.182 -1156.199 -2286.001 
-1267.245 -1161.062 -2230.083 
-1301.024 -1170.525 -2177.167 
-1325.436 -1176.906 -2116.498 
-1351.355 -1158.905 -2071.151 
-1399.401 -1170.974 -2020.383 
-1215.646 -1113.119 -2413.451 
-1249.708 -1117.623 -2342.902 
-1277.181 -1118.478 -2296.108 
-1308.089 -1117.163 -2253.587 
-1333.021 -1136.556 -2191.736 
-1361.224 -1122.952 -2149.212 
-1391.413 -1126.155 -2095.507 
-1429.827 -1140.603 -2047.644 
-1253.274 -1087.179 -2436.467 
-1289.812 -1092.988 -2374.948 
-1327.826 -1083.420 -2320.285 
-1344.133 -1093.137 -2270.095 
-1383.015 -1081.001 -2222.212 
-1406.785 -1096.774 -2159.240 
-1443.050 -1079.681 -2121.005 
-1471.813 -1087.459 -2069.499 
-1296.711 -1044.917 -2439.375 
-1335.562 -1050.968 -2388.670 
-1363.951 -1048.463 -2349.760 
-1392.873 -1046.807 -2301.734 
-1427.547 -1044.649 -2246.062 
-1457.952 -1045.102 -2179.872 
-1475.916 -1057.551 -2128.002 
-1501.861 -1059.750 -2087.751 
-1334.780 -1001.787 -2468.013 
-1361.363 -1010.932 -2415.059 
-1407.553 -1012.415 -2366.312 
-1432.701 -1007.214 -2323.537 
-1466.720 -1011.235 -2259.922 
-1493.405 -1015.029 -2208.443 
-1529.323 -1017.569 -2159.396 
-1552.302 -1012.494 -2115.803 
-1374.244 -957.8826 -2491.490 
-1419.738 -969.5934 -2437.759 
-1438.528 -958.0873 -2379.249 
-1477.900 -960.8571 -2345.809 
-1504.405 -964.9090 -2287.292 
-1531.294 -967.7424 -2224.780 
-1563.110 -982.5732 -2175.878 
-1591.936 -973.6736 -2122.217 
-1417.519 -920.1697 -2520.831 
-1455.588 -932.5439 -2469.795 
-1480.210 -932.2361 -2406.563 
-1504.731 -937.2206 -2364.527 
-1548.543 -934.0611 -2309.418 
-1566.899 -928.9743 -2262.343 
-1596.161 -937.3723 -2204.664 
-1621.753 -928.4594 -2155.893 
-1319.074 -1534.839 -1361.733 
-1314.753 -1538.067 -1363.666 
-1302.945 -1531.124 -1357.527 
-1318.489 -1532.003 -1353.536 
-401.4722 -1372.843 -3043.561 
-362.2650 -1327.816 -3019.384 
-462.3093 -1297.721 -3088.680 
-384.5247 -1207.864 -3078.054 
-307.9518 -1063.826 -3000.989 
-497.2006 -1250.560 -3142.972 
-469.9154 -1216.173 -3126.873 
-424.4969 -1163.121 -3104.644 
-397.2321 -1113.876 -3096.552 
-368.6870 -1071.837 -3034.144 
-335.5096 -1022.014 -3020.557 
-528.8162 -1228.558 -3171.262 
-496.9398 -1168.481 -3154.746 
-454.2725 -1120.258 -3143.460 
-431.1901 -1077.520 -3108.641 
-391.9536 -1042.398 -3090.124 
-371.3556 -988.3885 -3058.531 
-576.8001 -1173.786 -3198.213 
-539.4055 -1124.145 -3188.071 
-498.1851 -1078.794 -3149.497 
-471.5688 -1047.147 -3139.040 
-432.3673 -992.6195 -3105.101 
-397.2354 -944.1074 -3090.899 
-388.0949 -1368.059 -3039.792 
-347.3435 -1321.325 -3028.823 
-483.0244 -1297.682 -3092.864 
-456.4207 -1277.824 -3080.450 
-443.6592 -1256.016 -3059.409 
-384.3701 -1161.689 -3022.344 
-342.1844 -1112.718 -3000.858 
-522.4703 -1284.055 -3119.942 
-576.8513 -1241.272 -3140.596 
-607.2519 -1204.109 -3169.454 
-382.1700 -1388.819 -3035.108 
-359.4626 -1331.165 -3026.334 
-389.9747 -1378.727 -3051.105 
-374.7299 -1322.286 -3030.232 
-465.7447 -1301.767 -3092.894 
-388.0435 -1234.764 -3041.808 
-285.5233 -1076.291 -2976.230 
-448.4211 -1241.126 -3080.526 
-374.8746 -1163.787 -3018.216 
-337.5136 -1120.928 -3009.377 
-540.9326 -1128.947 -3186.901 
-523.0723 -1064.756 -3171.393 
-493.9657 -1025.977 -3150.941 
-460.4004 -971.9374 -3130.311 
-414.7675 -945.1315 -3103.910 
-1371.638 -444.8076 -3562.935 
-1560.884 -406.3072 -3327.334 
-1516.114 -366.2308 -3311.265 
-1474.524 -323.0897 -3304.843 
-1448.525 -274.8778 -3268.340 
-1416.600 -220.6355 -3248.879 
-1356.900 -173.9263 -3261.224 
-1648.921 -369.1788 -3263.684 
-1601.770 -324.9811 -3265.311 
-1560.537 -273.9799 -3248.787 
-1522.062 -229.3123 -3233.283 
-1496.308 -193.3883 -3202.295 
-1461.140 -138.5112 -3201.041 
-1676.885 -332.1276 -3296.261 
-1634.743 -296.9485 -3280.954 
-1608.071 -239.7710 -3270.089 
-1573.069 -200.4450 -3245.271 
-1536.403 -143.7072 -3234.271 
-1507.411 -110.6726 -3215.537 
-1711.486 -301.4612 -3305.344 
-1674.176 -260.0902 -3303.619 
-1631.972 -212.5818 -3287.039 
-1604.707 -167.2202 -3268.014 
-1563.923 -112.5464 -3266.332 
-1529.528 -74.84036 -3229.616 
-1759.492 -258.8221 -3345.823 
-1710.034 -202.2837 -3337.709 
-1659.029 -170.3298 -3331.837 
-1636.386 -112.0932 -3304.097 
-1607.146 -68.83947 -3283.422 
-1567.472 -36.22258 -3275.362 
-1770.210 -219.7915 -3391.541 
-1731.519 -181.5055 -3399.002 
-1699.423 -134.7292 -3369.963 
-1671.385 -81.41331 -3348.901 
-1639.421 -33.85105 -3328.339 
-1601.893 17.95391 -3295.448 
-1350.978 -496.4075 -3509.346 
-1384.026 -507.5039 -3453.218 
-1414.991 -494.0844 -3406.932 
-1446.694 -518.9245 -3359.339 
-1474.889 -505.9338 -3299.540 
-1512.670 -515.0435 -3252.309 
-1527.667 -511.1572 -3188.296 
-1578.023 -518.1551 -3152.348 
-1388.151 -458.1002 -3518.757 
-1417.841 -459.8366 -3468.058 
-1461.418 -463.1699 -3421.174 
-1490.877 -472.9264 -3377.771 
-1522.749 -480.9954 -3315.285 
-1541.322 -475.9578 -3272.824 
-1574.848 -457.2667 -3206.656 
-1602.637 -475.8139 -3166.274 
-1571.583 -417.6591 -3286.275 
-1611.811 -426.7509 -3243.924 
-1648.275 -426.4403 -3196.542 
-1497.652 -343.1038 -3303.221 
-1456.469 -296.1350 -3272.658 
-1412.157 -222.6900 -3246.910 
-1656.921 -375.6095 -3248.620 
-1695.755 -401.7323 -3217.735 
-1685.226 -358.5075 -3281.873 
-1734.817 -364.9418 -3234.272 
-1743.263 -322.3894 -3312.434 
-1776.123 -321.1190 -3248.790 
-1770.322 -279.6212 -3319.397 
-1812.969 -274.4411 -3278.946 
-1562.923 -29.52986 -3278.518 
-1777.708 -234.1874 -3404.515 
-1813.192 -231.5125 -3347.205 
-1850.171 -234.3886 -3295.917 
-1336.078 -531.4379 -3431.785 
-1361.746 -524.6226 -3373.444 
-1393.478 -440.4818 -3520.047 
-1426.888 -427.6079 -3477.569 
-1459.521 -424.0320 -3429.365 
-1506.088 -425.4818 -3371.858 
-1546.889 -414.5377 -3334.682 
-1373.359 -378.6493 -3504.578 
-1402.426 -386.3419 -3455.066 
-1442.912 -371.9317 -3417.372 
-1473.275 -380.8339 -3372.853 
-1507.611 -373.4162 -3322.332 
-1331.038 -347.5509 -3491.139 
-1369.631 -325.8630 -3437.548 
-1395.626 -341.5608 -3398.536 
-1436.715 -322.8509 -3351.276 
-1290.620 -290.0016 -3473.051 
-1329.217 -287.8412 -3422.973 
-1363.599 -276.4963 -3376.741 
-1402.202 -286.4041 -3331.831 
-1449.870 -276.0726 -3274.533 
-1272.049 -260.3732 -3442.676 
-1294.097 -251.6817 -3398.618 
-1343.546 -241.3860 -3359.038 
-1377.425 -229.2502 -3294.784 
-1413.425 -238.1273 -3251.747 
-1225.971 -195.3970 -3425.064 
-1279.264 -202.4913 -3380.933 
-1308.787 -188.5699 -3335.254 
-1348.723 -185.5660 -3283.504 
-1582.133 -403.9131 -3294.105 
-1543.883 -355.6660 -3272.800 
-1489.321 -319.5821 -3290.121 
-1519.643 -307.8156 -3243.448 
-1476.883 -269.5667 -3237.643 
-1456.159 -221.3257 -3211.198 
-1379.567 -175.3455 -3234.672 
-1424.151 -179.8626 -3180.671 
-1574.584 -24.50517 -3261.264 
-1759.271 -220.1551 -3388.946 
-1705.909 -205.5777 -3354.900 
-1679.445 -173.2599 -3333.041 
-1641.241 -105.2672 -3324.762 
-1626.819 -38.76130 -3314.691 
-665.1772 -562.0894 -3384.151 
-641.1329 -513.8210 -3346.083 
-603.0801 -462.0381 -3332.599 
-571.7239 -423.1967 -3309.964 
-550.1735 -365.6738 -3291.144 
-506.9048 -329.3812 -3273.443 
-483.8302 -273.6467 -3246.285 
-453.5677 -238.8105 -3225.079 
-711.5705 -517.7406 -3405.290 
-676.3984 -472.3173 -3388.715 
-652.4277 -423.7910 -3351.849 
-608.8596 -379.1323 -3336.282 
-593.7870 -338.5951 -3304.754 
-564.3851 -291.3451 -3287.464 
-523.0277 -250.0004 -3269.334 
-498.7809 -203.3208 -3243.692 
-734.6472 -473.9552 -3435.265 
-705.0776 -424.3387 -3414.753 
-682.5891 -388.8116 -3393.058 
-649.7655 -344.9311 -3371.604 
-633.7871 -289.2198 -3321.850 
-584.3636 -243.9470 -3311.012 
-563.2962 -201.3438 -3296.883 
-520.7693 -162.1689 -3261.765 
-780.3863 -430.6633 -3465.069 
-735.2495 -389.0617 -3461.080 
-715.9874 -345.2621 -3410.350 
-696.4636 -300.0828 -3386.699 
-655.3190 -258.8074 -3376.891 
-625.9741 -210.7724 -3340.963 
-597.2019 -161.3524 -3308.121 
-562.0226 -113.1433 -3289.091 
-823.6721 -402.9335 -3488.509 
-772.2339 -351.9341 -3479.627 
-749.2372 -305.7834 -3459.802 
-726.2521 -251.1909 -3425.719 
-694.1272 -212.0831 -3414.745 
-650.0945 -172.7480 -3385.476 
-620.4843 -113.4801 -3347.526 
-594.0150 -69.54403 -3347.155 
-848.1372 -367.3315 -3518.329 
-815.2789 -309.7170 -3517.344 
-774.7624 -273.9481 -3491.222 
-744.7241 -213.0841 -3463.685 
-730.3055 -173.9677 -3429.260 
-696.0496 -125.3092 -3410.863 
-656.6549 -86.68913 -3401.792 
-627.2451 -41.34313 -3369.469 
-884.2833 -320.0216 -3555.803 
-845.5867 -275.8665 -3549.347 
-823.6335 -225.3202 -3496.583 
-784.0944 -172.1243 -3492.832 
-750.7653 -142.4770 -3472.129 
-724.5541 -83.67443 -3448.140 
-677.9485 -47.47222 -3437.862 
-646.9637 8.676851 -3409.932 
-909.8056 -284.4232 -3597.562 
-883.0786 -226.0523 -3560.777 
-861.2739 -194.5411 -3555.302 
-825.6406 -136.7092 -3514.321 
-780.8640 -88.08270 -3497.840 
-745.8631 -42.88517 -3491.757 
-722.4402 3.901395 -3442.746 
-690.5680 36.86806 -3436.843 
-725.8494 85.10612 -3450.625 
-725.3978 -550.2277 -3430.403 
-687.1571 -494.6698 -3409.301 
-723.3441 -427.1625 -3406.237 
-694.2943 -315.3628 -3395.492 
-655.3350 -261.9220 -3384.984 
-649.7108 -247.8257 -3379.407 
-707.3276 -529.3297 -3407.587 
-718.9648 -424.9238 -3402.333 
-699.3762 -367.0042 -3402.722 
-651.8389 -246.9833 -3361.326 
-701.5745 -279.7126 -3413.878 
-656.0966 -177.2861 -3366.129 
-622.7225 -117.1716 -3350.763 
-591.1149 -91.62742 -3332.737 
-920.9379 -268.4364 -3592.358 
-903.8104 -220.7216 -3580.660 
-875.9327 -165.1472 -3562.971 
-852.1985 -100.7094 -3556.649 
-768.3663 -28.70149 -3501.719 
-756.2322 28.54953 -3489.115 
-403.4976 -874.7480 -3127.354 
-367.8263 -827.8686 -3095.099 
-330.2458 -770.2021 -3089.776 
-297.7906 -723.5715 -3049.345 
-276.8361 -685.8173 -3024.624 
-253.7984 -633.1022 -2995.540 
-215.2160 -593.0790 -2967.988 
-170.9934 -546.1096 -2958.989 
-434.0365 -823.8456 -3164.586 
-401.5034 -776.5850 -3139.722 
-359.2462 -735.2515 -3117.244 
-332.2987 -686.7165 -3086.220 
-305.1693 -636.9438 -3062.788 
-267.5145 -597.9656 -3033.045 
-243.4170 -558.7622 -3011.465 
-209.5580 -500.8543 -2985.280 
-463.3394 -788.7360 -3192.062 
-423.7910 -751.3773 -3166.717 
-387.8018 -704.9879 -3154.085 
-371.1834 -660.5944 -3113.000 
-335.8967 -599.8206 -3093.500 
-313.4005 -559.4945 -3056.305 
-286.2329 -513.8048 -3038.865 
-248.5778 -471.2063 -3015.823 
-490.6278 -753.3026 -3208.993 
-460.3481 -704.9191 -3188.493 
-432.5468 -647.8092 -3161.431 
-402.0349 -609.1840 -3146.839 
-373.4840 -575.3871 -3121.739 
-349.9565 -522.7299 -3092.104 
-317.4937 -475.2509 -3079.396 
-273.0352 -428.2090 -3045.022 
-542.6182 -707.9611 -3249.058 
-504.0627 -659.6935 -3224.183 
-465.2226 -618.9714 -3210.560 
-441.9868 -566.1159 -3178.339 
-408.6086 -526.9998 -3141.509 
-391.2205 -487.7555 -3113.379 
-342.0135 -432.0492 -3111.208 
-315.1779 -398.8842 -3084.796 
-561.2139 -679.1191 -3290.969 
-532.2797 -630.5565 -3261.288 
-496.1848 -577.1638 -3228.892 
-482.5840 -539.6061 -3207.206 
-443.5512 -481.8877 -3169.858 
-409.7635 -435.5303 -3161.006 
-383.0969 -404.3348 -3132.989 
-358.3108 -353.0468 -3109.297 
-600.1583 -625.9198 -3328.796 
-565.0934 -595.0026 -3303.801 
-547.5438 -531.3959 -3263.296 
-522.3488 -497.9670 -3225.679 
-488.6541 -448.4903 -3206.194 
-444.9196 -410.6685 -3185.078 
-425.1338 -359.4940 -3158.972 
-387.7359 -321.4102 -3143.172 
-636.7665 -600.8815 -3350.084 
-606.1006 -545.7094 -3322.892 
-561.0081 -502.4799 -3307.897 
-549.5448 -455.9322 -3287.758 
-514.2042 -418.4501 -3232.126 
-488.0943 -361.1136 -3213.380 
-452.3911 -314.4578 -3203.958 
-429.9012 -273.9225 -3174.399 
-445.9858 -242.5934 -3217.323 
-285.2459 -708.5818 -3039.095 
-570.6752 -751.4869 -3256.679 
-503.1637 -571.4576 -3223.271 
-526.2753 -511.7866 -3232.246 
-531.4407 -407.5450 -3232.079 
-519.5961 -408.3019 -3220.052 
-300.8890 -663.5995 -3041.874 
-267.8121 -615.4626 -3013.915 
-238.0743 -558.2282 -3001.933 
-206.2529 -501.8872 -2990.333 
-553.7162 -687.4222 -3263.682 
-506.9889 -651.8583 -3230.450 
-481.9117 -598.8249 -3219.031 
-523.6993 -493.5158 -3241.443 
-476.9194 -386.5278 -3199.643 
-419.6868 -358.7124 -3165.987 
-399.9849 -287.7733 -3163.803 
-521.3209 -399.5737 -3233.161 
-192.8374 -1015.850 -2924.502 
-140.8406 -924.1363 -2887.066 
-92.95666 -880.8951 -2858.981 
-269.0489 -1030.631 -2991.492 
-240.3335 -980.9627 -2962.288 
-190.4321 -925.3055 -2941.477 
-167.5942 -877.7383 -2938.931 
-140.4597 -832.8035 -2892.022 
-99.51121 -790.9943 -2866.998 
-79.76904 -743.4922 -2841.999 
-50.23638 -704.6553 -2827.142 
-304.8237 -992.5551 -3010.748 
-272.0539 -945.3517 -2996.464 
-238.8797 -884.7912 -2968.609 
-196.1353 -850.6234 -2943.658 
-172.4423 -803.1996 -2933.800 
-137.9333 -756.5714 -2899.426 
-108.8177 -714.2571 -2886.044 
-63.81151 -653.4452 -2867.133 
-330.0651 -948.0237 -3058.039 
-291.0979 -907.5964 -3020.517 
-268.4980 -847.5304 -3010.839 
-241.4108 -814.3873 -2984.714 
-193.8457 -761.6821 -2970.387 
-176.4664 -706.3673 -2941.261 
-151.9250 -670.2159 -2915.647 
-100.4040 -620.4437 -2883.824 
-371.0561 -896.5410 -3084.041 
-327.3663 -854.5323 -3057.049 
-302.5063 -812.2209 -3031.409 
-269.8354 -767.1068 -3023.081 
-240.4716 -724.2048 -3001.260 
-217.4365 -671.3344 -2963.365 
-166.5741 -622.7550 -2951.722 
-144.9614 -594.0476 -2924.474 
-184.1859 -537.8417 -2945.487 
-213.5528 -1045.953 -2933.392 
-173.8323 -977.2628 -2908.277 
-156.1476 -961.0986 -2900.866 
-84.12429 -844.1815 -2848.981 
-191.5102 -1033.925 -2915.564 
-122.8947 -939.1672 -2876.224 
-93.95630 -897.7053 -2854.076 
-237.3813 -1056.216 -2943.677 
-169.4318 -964.8190 -2905.605 
-84.25671 -831.3167 -2848.388 
-53.09798 -770.5205 -2830.916 
-12.40801 -730.5939 -2806.068 
-386.5490 -887.3229 -3094.524 
-348.9329 -843.3033 -3071.183 
-320.7953 -794.5213 -3059.767 
-298.8418 -741.7291 -3042.289 
-1074.754 -1540.993 -1769.804 
-1254.427 -1490.763 -1365.361 
-1219.905 -1441.078 -1357.009 
-1175.830 -1404.993 -1350.724 
-1140.620 -1349.595 -1335.953 
-1103.424 -1303.556 -1305.236 
-1111.709 -1259.268 -1251.276 
-1156.559 -1488.831 -1721.175 
-1322.493 -1493.198 -1424.790 
-1300.408 -1456.777 -1405.102 
-1256.398 -1410.408 -1401.684 
-1200.415 -1374.328 -1384.873 
-1185.190 -1318.853 -1356.843 
-1142.606 -1280.713 -1341.071 
-1127.077 -1221.895 -1293.378 
-1170.274 -1450.869 -1791.436 
-1234.933 -1464.106 -1688.786 
-1350.999 -1472.226 -1460.835 
-1319.072 -1415.112 -1444.671 
-1275.039 -1366.052 -1433.343 
-1241.337 -1326.323 -1412.752 
-1213.437 -1281.804 -1403.089 
-1183.045 -1235.795 -1363.307 
-1184.303 -1180.803 -1291.289 
-1206.871 -1420.293 -1804.435 
-1235.497 -1424.067 -1748.174 
-1304.865 -1416.480 -1635.338 
-1396.500 -1426.088 -1495.487 
-1360.527 -1372.235 -1471.852 
-1319.312 -1333.288 -1447.042 
-1273.391 -1280.602 -1449.706 
-1230.228 -1241.114 -1440.068 
-1215.381 -1205.215 -1388.564 
-1206.222 -1152.910 -1356.810 
-1366.948 -1383.400 -1608.264 
-1431.383 -1386.907 -1521.048 
-1400.694 -1341.958 -1494.576 
-1347.920 -1301.189 -1485.849 
-1301.047 -1251.473 -1489.714 
-1266.447 -1192.649 -1479.822 
-1252.316 -1149.509 -1422.239 
-1235.517 -1119.116 -1376.231 
-1425.788 -1343.578 -1595.659 
-1456.492 -1352.131 -1572.756 
-1423.426 -1303.721 -1533.004 
-1377.516 -1254.503 -1536.094 
-1340.807 -1213.321 -1522.903 
-1318.856 -1164.342 -1510.048 
-1303.609 -1108.703 -1453.975 
-1280.376 -1064.810 -1413.035 
-1403.499 -1309.059 -1743.500 
-1391.530 -1304.960 -1744.333 
-1449.526 -1305.845 -1664.021 
-1460.145 -1296.856 -1631.929 
-1473.674 -1257.710 -1551.104 
-1426.708 -1219.603 -1549.567 
-1380.933 -1168.206 -1543.275 
-1349.363 -1132.638 -1523.744 
-1320.955 -1081.947 -1503.934 
-1316.434 -1035.155 -1434.962 
-1485.658 -1275.595 -1675.974 
-1503.084 -1259.855 -1666.301 
-1510.384 -1215.199 -1584.825 
-1460.424 -1169.493 -1585.261 
-1413.475 -1127.054 -1563.878 
-1394.856 -1079.965 -1556.111 
-1351.625 -1047.768 -1528.400 
-1360.659 -1000.793 -1456.209 
-1104.814 -1535.297 -1734.720 
-1127.486 -1550.747 -1665.401 
-1157.327 -1544.227 -1631.236 
-1201.822 -1550.072 -1578.547 
-1218.774 -1545.921 -1524.475 
-1265.413 -1552.407 -1460.067 
-1282.629 -1545.235 -1415.306 
-1189.456 -1431.487 -1360.111 
-1108.974 -1296.883 -1300.792 
-1175.748 -1503.322 -1691.775 
-1195.019 -1500.394 -1640.773 
-1229.250 -1516.800 -1594.271 
-1265.737 -1514.224 -1544.242 
-1300.698 -1503.826 -1488.473 
-1313.748 -1497.133 -1439.548 
-1136.485 -1484.330 -1748.416 
-1269.595 -1432.528 -1405.074 
-1118.702 -1230.473 -1310.817 
-1243.847 -1459.369 -1669.647 
-1273.993 -1468.176 -1619.129 
-1310.700 -1466.131 -1566.538 
-1335.222 -1467.733 -1509.095 
-1175.264 -1451.317 -1762.048 
-1212.530 -1460.729 -1711.020 
-1174.721 -1219.445 -1340.594 
-1219.811 -1425.851 -1791.435 
-1305.862 -1426.006 -1637.189 
-1349.471 -1426.097 -1585.940 
-1376.559 -1425.121 -1525.016 
-1251.719 -1414.957 -1726.873 
-1278.565 -1410.248 -1676.121 
-1371.080 -1386.077 -1610.527 
-1412.059 -1388.281 -1563.165 
-1251.038 -1364.026 -1814.213 
-1287.910 -1365.705 -1761.694 
-1301.678 -1372.579 -1698.634 
-1333.348 -1364.834 -1650.824 
-1325.723 -1265.676 -1502.316 
-1267.103 -1185.556 -1455.786 
-1444.200 -1346.849 -1576.407 
-1286.536 -1335.130 -1818.576 
-1319.744 -1331.552 -1779.908 
-1350.067 -1334.761 -1728.972 
-1392.055 -1338.809 -1679.910 
-1424.649 -1342.229 -1615.092 
-1389.321 -1272.578 -1537.342 
-1310.677 -1136.537 -1485.995 
-1396.285 -1304.358 -1745.595 
-1463.915 -1299.666 -1639.684 
-1331.484 -1286.396 -1851.155 
-1366.805 -1284.166 -1802.226 
-1427.681 -1304.564 -1699.028 
-1486.991 -1303.682 -1600.969 
-1405.940 -1197.020 -1539.968 
-1305.947 -1064.010 -1485.800 
-1495.883 -1274.240 -1667.341 
-1375.540 -1245.278 -1876.750 
-1401.714 -1258.379 -1824.584 
-1433.087 -1272.447 -1778.379 
-1473.542 -1271.170 -1711.772 
-1513.311 -1266.253 -1607.182 
-1464.375 -1184.771 -1573.786 
-1335.899 -1013.411 -1494.638 
-1121.945 -1499.682 -1744.315 
-1230.447 -1428.968 -1378.762 
-1180.454 -1475.710 -1705.737 
-1347.755 -1471.304 -1439.779 
-1324.498 -1432.278 -1432.775 
-1184.981 -1451.216 -1769.339 
-1243.865 -1443.673 -1665.781 
-1204.139 -1145.068 -1353.902 
-1232.023 -1405.911 -1805.892 
-1302.434 -1427.101 -1635.660 
-1291.272 -1256.155 -1488.740 
-1248.233 -1239.805 -1458.356 
-1398.804 -1357.278 -1619.949 
-1374.848 -1273.136 -1523.693 
-1388.657 -1295.558 -1741.063 
-1450.573 -1316.683 -1631.938 
-1453.883 -1335.729 -1575.692 
-1392.840 -1224.889 -1547.467 
-1296.452 -1093.726 -1475.096 
-1394.704 -1307.620 -1759.949 
-1447.611 -1184.344 -1563.948 
-1432.463 -1245.859 -1832.105 
-1510.568 -1259.801 -1666.001 
-1701.844 -242.7823 -2435.207 
-1638.995 -195.4278 -2453.759 
-1576.019 -145.6376 -2496.582 
-1800.863 -204.3316 -2338.138 
-1737.044 -152.4254 -2382.095 
-1647.814 -104.2647 -2427.051 
-1841.138 -159.5004 -2357.713 
-1808.176 -110.4580 -2363.002 
-1717.437 -69.34396 -2423.414 
-1862.726 -66.57951 -2347.917 
-1778.308 -18.54591 -2405.456 
-1617.708 30.82526 -2593.529 
-1831.248 11.77851 -2411.013 
-1693.754 65.21570 -2577.093 
-1900.608 57.23594 -2380.716 
-1740.068 108.3941 -2581.839 
-1936.292 80.59628 -2414.172 
-1972.046 82.83345 -2358.225 
-1808.514 137.8355 -2563.831 
-1808.509 185.2159 -2632.028 
-1717.807 -251.4574 -2397.039 
-1760.745 -246.4830 -2344.868 
-1776.779 -252.8007 -2293.907 
-1824.613 -251.8708 -2252.023 
-1683.449 -213.6957 -2432.247 
-1601.969 -160.3738 -2470.295 
-1555.924 -147.0064 -2509.297 
-1819.271 -208.7904 -2312.041 
-1843.802 -210.7359 -2256.570 
-1778.721 -176.2084 -2362.935 
-1662.010 -112.8663 -2437.389 
-1710.028 -143.8051 -2386.674 
-1589.042 -70.39462 -2520.295 
-1614.694 -82.68761 -2462.953 
-1863.367 -174.5222 -2331.603 
-1890.299 -177.2575 -2273.865 
-1743.277 -69.62188 -2401.009 
-1794.302 -104.6074 -2366.563 
-1620.364 -19.21823 -2533.198 
-1657.722 -37.77929 -2481.551 
-1697.746 -65.53262 -2439.620 
-1871.501 -96.06857 -2349.169 
-1921.197 -91.91289 -2291.590 
-1812.118 -51.83448 -2369.487 
-1654.823 22.40935 -2558.718 
-1692.345 12.13540 -2508.816 
-1729.189 -12.18995 -2466.090 
-1762.103 -19.94342 -2407.950 
-1838.519 -2.693229 -2396.808 
-1895.762 -33.14536 -2358.740 
-1931.371 -17.61045 -2297.963 
-1695.625 54.34732 -2570.038 
-1714.559 58.41942 -2519.368 
-1753.978 36.41955 -2484.258 
-1808.666 23.41308 -2439.601 
-1920.930 39.11098 -2359.507 
-1945.856 44.63950 -2315.882 
-1762.212 84.88406 -2554.956 
-1788.436 82.56156 -2490.078 
-1833.629 60.71002 -2456.156 
-1869.571 58.13929 -2404.044 
-1732.731 97.92949 -2603.079 
-1960.208 68.47692 -2390.181 
-1835.553 132.8837 -2512.283 
-1882.030 99.80392 -2472.987 
-1920.891 100.2184 -2420.380 
-1979.579 84.31741 -2328.550 
-1765.287 149.4454 -2608.723 
-1793.946 129.8326 -2575.450 
-1846.271 163.5504 -2583.734 
-1883.250 166.5453 -2552.781 
-1918.442 153.1335 -2498.537 
-1947.612 141.1677 -2445.847 
-1981.070 139.3335 -2394.323 
-2021.238 139.5234 -2339.415 
-1801.482 172.6757 -2649.880 
-1605.331 -254.8375 -2536.898 
-1642.256 -248.3394 -2475.863 
-1682.700 -244.0331 -2441.783 
-1585.640 -205.3668 -2524.135 
-1624.667 -195.5702 -2471.711 
-1560.469 -142.5134 -2514.210 
-1720.002 -218.3305 -2402.330 
-1778.750 -225.0285 -2353.852 
-1655.992 -183.2799 -2427.888 
-1706.726 -167.5062 -2395.617 
-1604.697 -124.8203 -2465.030 
-1777.829 -123.5516 -2356.633 
-1666.984 -94.82527 -2435.883 
-1864.904 -144.6813 -2337.192 
-1904.504 -147.1761 -2285.847 
-1744.956 -62.61926 -2398.534 
-1881.613 -44.80035 -2348.167 
-1916.157 -61.64632 -2284.153 
-1863.359 27.26023 -2397.972 
-1694.269 71.70314 -2572.053 
-1959.722 61.02477 -2315.285 
-1789.520 117.8281 -2550.146 
-1977.251 113.7891 -2401.443 
-1819.394 143.3884 -2581.008 
-1811.363 -182.0545 -3242.173 
-1777.195 -137.4944 -3217.508 
-1755.847 -85.02484 -3209.070 
-1717.580 -36.04145 -3193.169 
-1760.360 -4.297712 -3218.061 
-1707.431 45.62330 -3204.124 
-1877.816 -187.8854 -3309.580 
-1800.256 -82.65564 -3273.627 
-1763.169 -29.18958 -3247.489 
-1914.906 -142.7560 -3340.753 
-1922.809 -148.2820 -3332.569 
-1766.879 -53.13099 -3241.382 
-1867.925 -107.4431 -3308.121 
-1820.103 -75.90995 -3283.750 
-1756.153 13.83932 -3240.339 
-1738.248 74.58466 -3232.898 
-1924.370 -151.1288 -3328.632 
-1336.189 -128.9042 -3250.608 
-1291.720 -94.48895 -3222.057 
-1268.770 -49.77906 -3215.656 
-1229.155 -0.2955872 -3181.621 
-1185.123 49.19415 -3176.224 
-1163.015 97.39707 -3125.829 
-1128.897 130.1530 -3111.189 
-1101.128 183.0684 -3102.435 
-1413.180 -107.2681 -3172.387 
-1381.584 -57.07761 -3156.230 
-1362.594 -3.319718 -3136.911 
-1330.957 32.96447 -3117.174 
-1290.638 83.47047 -3102.294 
-1259.871 134.8356 -3075.269 
-1215.759 178.2137 -3048.575 
-1201.557 211.5767 -3021.518 
-1455.781 -66.73046 -3202.571 
-1431.973 -6.855860 -3169.858 
-1402.490 35.07443 -3152.094 
-1374.912 80.82912 -3123.710 
-1335.548 120.7081 -3107.200 
-1292.977 162.8487 -3085.027 
-1272.074 216.1511 -3077.877 
-1234.429 249.8513 -3045.165 
-1513.300 -12.46001 -3204.290 
-1470.743 13.73536 -3190.224 
-1439.635 68.53450 -3165.563 
-1400.515 113.0543 -3149.031 
-1370.430 161.5429 -3129.164 
-1334.959 198.2697 -3110.727 
-1310.051 250.6411 -3079.765 
-1274.418 300.5338 -3060.044 
-1540.995 19.53288 -3236.904 
-1509.434 56.13441 -3212.084 
-1468.394 103.2889 -3205.150 
-1439.798 149.2258 -3172.973 
-1403.650 208.5398 -3161.121 
-1391.172 251.5700 -3132.908 
-1348.478 292.1448 -3112.100 
-1311.142 332.9508 -3095.160 
-1576.110 63.31568 -3293.317 
-1531.902 106.3222 -3274.667 
-1498.575 146.7294 -3237.858 
-1467.430 197.3923 -3219.402 
-1447.339 233.2792 -3195.000 
-1404.869 278.0451 -3178.715 
-1380.112 320.4109 -3165.740 
-1340.003 383.4014 -3134.753 
-1572.219 -28.11481 -3267.124 
-1196.792 -158.5630 -3400.504 
-1238.212 -150.3015 -3353.242 
-1266.814 -145.4794 -3314.011 
-1304.824 -134.4211 -3263.727 
-1164.193 -118.8832 -3379.393 
-1200.008 -110.5045 -3347.288 
-1233.009 -90.94967 -3286.126 
-1270.043 -101.5755 -3251.884 
-1131.228 -65.00963 -3368.376 
-1178.432 -56.60014 -3325.158 
-1209.530 -61.99433 -3267.671 
-1254.167 -44.64837 -3228.433 
-1108.018 -13.86541 -3351.766 
-1142.861 -16.65891 -3300.993 
-1181.754 -15.11615 -3260.088 
-1206.366 -7.317847 -3193.944 
-1061.894 22.59306 -3323.403 
-1113.652 31.28802 -3274.138 
-1147.032 41.60838 -3223.453 
-1188.595 43.43504 -3181.625 
-1028.802 64.90915 -3307.167 
-1062.839 75.51134 -3253.334 
-1115.969 92.06750 -3214.077 
-1151.644 97.43758 -3160.159 
-1006.934 108.9623 -3289.885 
-1036.371 127.2897 -3235.150 
-1065.974 136.4389 -3184.090 
-1122.240 134.9026 -3148.745 
-933.6855 154.0363 -3317.619 
-959.2396 164.6759 -3270.048 
-1000.928 170.0272 -3223.951 
-1038.316 170.0724 -3179.807 
-1085.452 191.8438 -3128.071 
-1362.276 -127.2072 -3225.273 
-1388.352 -119.2802 -3177.262 
-1327.434 -87.37392 -3192.834 
-1353.382 -83.44490 -3146.367 
-1288.114 -36.99977 -3184.998 
-1321.769 -33.31841 -3124.085 
-1253.627 0.7541915 -3160.437 
-1296.299 22.96640 -3110.027 
-1225.409 51.03813 -3147.070 
-1268.380 63.89982 -3089.476 
-1176.931 100.7922 -3108.680 
-1226.657 102.5405 -3074.552 
-1157.722 135.4529 -3093.348 
-1181.399 156.5182 -3039.471 
-1128.037 184.6799 -3069.060 
-1151.684 196.9879 -3028.435 
-1560.749 46.29603 -3270.938 
-1537.719 97.15501 -3238.288 
-1497.767 135.6095 -3220.245 
-1465.611 174.0858 -3208.384 
-1453.311 234.6345 -3191.377 
-1400.489 286.2962 -3167.116 
-1369.965 328.9254 -3150.033 
-1334.903 379.2104 -3134.467 
-1736.804 96.64783 -3107.657 
-1749.202 94.90534 -3043.857 
-1758.023 173.8337 -2896.048 
-1780.762 210.7529 -2765.930 
-1793.979 135.6531 -3062.005 
-1849.072 115.1462 -2987.817 
-1879.421 165.1100 -2861.207 
-1850.430 203.7470 -2849.019 
-1849.278 172.4032 -3076.132 
-1945.179 157.1460 -2906.435 
-1814.371 211.8746 -3055.055 
-1916.565 201.9187 -2896.475 
-1798.702 261.3583 -3007.086 
-1885.346 261.4295 -2849.293 
-1753.338 307.2503 -2995.991 
-1718.451 344.5345 -3015.176 
-1662.057 391.1181 -2995.382 
-1630.663 433.7728 -2998.004 
-1580.253 480.1222 -2984.123 
-1876.153 378.5525 -2802.990 
-1861.663 429.8846 -2768.731 
-1834.134 465.5282 -2749.696 
-1790.002 511.7036 -2728.923 
-1712.072 95.59589 -3134.913 
-1773.505 78.05688 -3038.752 
-1740.451 84.05189 -3081.128 
-1750.873 184.3278 -2896.338 
-1779.674 198.3622 -2834.635 
-1796.024 218.1706 -2768.854 
-1821.947 222.1015 -2705.982 
-1749.639 89.38349 -3237.786 
-1750.388 129.1253 -3159.145 
-1778.438 132.9326 -3105.224 
-1804.740 137.7410 -3067.797 
-1844.851 124.4412 -3011.089 
-1827.345 252.5555 -2802.133 
-1868.920 262.9738 -2744.663 
-1878.591 151.4020 -3037.663 
-1926.519 143.7754 -2992.475 
-1819.502 210.0137 -3057.794 
-1800.004 208.4228 -3062.870 
-1885.431 263.2909 -2832.149 
-1894.610 283.9350 -2765.565 
-1723.165 346.4137 -3003.934 
-1924.515 364.8664 -2775.080 
-1693.202 79.03021 -3133.799 
-1754.578 114.8679 -2958.755 
-1706.156 146.2652 -2925.772 
-1735.661 82.98192 -3079.875 
-1779.394 90.83736 -3043.442 
-1822.622 111.6271 -2994.369 
-1851.567 148.2518 -2876.186 
-1767.991 195.7142 -2895.008 
-1817.434 205.8908 -2849.651 
-1799.835 219.3693 -2766.060 
-1843.424 240.6990 -2739.515 
-1742.965 155.9067 -3222.990 
-1756.908 142.2713 -3168.247 
-1793.196 144.5019 -3118.645 
-1831.788 129.0890 -3010.055 
-1702.717 196.2185 -3198.910 
-1728.711 190.3053 -3164.990 
-1777.792 213.4000 -3102.533 
-1667.423 239.8736 -3184.117 
-1715.459 246.7681 -3139.797 
-1750.328 246.1931 -3089.989 
-1781.773 259.4969 -3040.821 
-1633.202 287.2795 -3157.926 
-1674.675 301.0804 -3110.651 
-1717.316 303.2710 -3058.300 
-1744.422 289.5721 -3010.271 
-1597.393 334.0568 -3141.575 
-1632.953 341.5667 -3094.689 
-1678.147 346.5630 -3051.005 
-1566.764 380.6796 -3125.544 
-1614.919 377.7685 -3084.440 
-1642.588 392.7478 -3031.239 
-1532.783 424.5914 -3108.486 
-1585.203 429.3853 -3052.589 
-1609.573 436.0475 -3011.046 
-1505.122 481.0121 -3086.324 
-1540.884 477.2086 -3030.955 
-1575.666 487.3737 -2989.170 
-1888.301 172.0416 -3029.003 
-1917.446 169.5513 -2976.943 
-1954.668 186.0772 -2945.019 
-1818.163 206.5268 -3068.091 
-1856.680 213.7984 -3013.221 
-1897.367 220.7824 -2969.378 
-1915.175 217.7003 -2924.156 
-1822.190 249.7855 -2993.830 
-1857.781 270.8351 -2946.696 
-1885.911 258.0923 -2890.656 
-1786.537 312.8503 -2981.652 
-1830.425 322.5056 -2920.637 
-1863.854 331.4592 -2878.888 
-1905.819 314.2373 -2833.667 
-1917.662 304.7103 -2772.759 
-1706.416 345.4176 -3003.547 
-1760.019 355.4903 -2952.141 
-1798.841 373.8009 -2911.456 
-1831.085 365.9234 -2852.215 
-1873.716 375.9783 -2820.504 
-1694.119 398.6929 -2988.209 
-1718.632 407.8964 -2933.611 
-1757.742 411.7289 -2891.974 
-1805.824 424.3005 -2829.428 
-1830.469 413.6840 -2796.733 
-1647.073 442.1463 -2958.371 
-1686.606 458.0540 -2914.635 
-1735.768 454.8465 -2857.112 
-1765.113 458.3716 -2814.998 
-1808.039 478.7836 -2773.138 
-1616.000 483.6046 -2944.309 
-1656.104 501.9150 -2889.725 
-1692.152 513.6609 -2838.654 
-1742.988 500.4813 -2801.985 
-1783.074 507.2215 -2754.919 
-1906.618 381.8094 -2769.971 
-1872.199 433.2355 -2735.669 
-1835.803 477.4521 -2725.079 
-1804.906 513.4636 -2705.696 
-1267.915 -502.4042 -2694.545 
-1283.419 -461.8470 -2776.897 
-1322.920 -428.6700 -2792.255 
-1356.290 -377.2800 -2815.006 
-1376.307 -353.7096 -2889.465 
-1262.222 -493.3602 -2701.834 
-1284.348 -486.9909 -2640.714 
-1324.559 -481.5892 -2584.581 
-1351.854 -486.7140 -2528.609 
-1283.453 -452.1106 -2774.940 
-1300.950 -438.1364 -2698.603 
-1318.255 -431.5711 -2647.560 
-1345.508 -435.7420 -2597.319 
-1387.588 -450.1869 -2557.095 
-1321.183 -412.6808 -2777.155 
-1321.274 -389.8942 -2722.183 
-1352.065 -392.6960 -2679.492 
-1390.465 -397.2270 -2612.862 
-1419.076 -396.2797 -2565.749 
-1343.372 -364.8626 -2815.571 
-1363.264 -368.6594 -2747.363 
-1402.286 -353.6397 -2694.184 
-1425.469 -352.0091 -2639.149 
-1442.405 -345.5690 -2578.906 
-1359.999 -340.6258 -2877.341 
-1372.901 -318.9204 -2815.433 
-1411.775 -315.1930 -2773.494 
-1428.036 -310.1853 -2721.486 
-1461.598 -308.4226 -2655.670 
-1496.865 -314.8587 -2605.598 
-1254.353 -503.6934 -2692.235 
-1282.310 -529.2020 -2637.627 
-1294.242 -540.3516 -2574.097 
-1344.795 -528.6883 -2525.373 
-1268.509 -471.7650 -2759.330 
-1366.534 -346.4078 -2887.313 
-1394.992 -275.7548 -2837.393 
-1412.159 -292.0410 -2774.635 
-1442.755 -306.0895 -2709.404 
-1473.256 -288.0434 -2668.478 
-1508.008 -284.1436 -2620.391 
-1387.885 -230.6496 -2769.292 
-1407.813 -240.5163 -2708.226 
-1437.588 -247.2669 -2644.440 
-1480.400 -232.8488 -2606.960 
-1579.028 -536.8638 -3001.808 
-1511.666 -434.4645 -2988.832 
-1450.820 -404.4374 -2979.521 
-1423.511 -360.8849 -2947.069 
-1568.763 -449.0179 -3034.700 
-1545.795 -410.5712 -3000.011 
-1508.422 -355.9025 -2995.292 
-1460.585 -317.2803 -2978.493 
-1614.360 -401.7207 -3058.210 
-1572.827 -369.8299 -3028.833 
-1535.558 -313.2029 -3022.542 
-1511.236 -280.4414 -3011.195 
-1670.208 -417.2387 -3130.927 
-1640.354 -374.3700 -3086.017 
-1602.252 -325.8455 -3058.784 
-1564.061 -289.4770 -3050.317 
-1550.131 -228.6878 -3025.788 
-1646.988 -289.4857 -3101.550 
-1614.877 -251.1325 -3072.901 
-1588.648 -197.9067 -3054.196 
-1698.354 -292.0887 -3177.444 
-1640.499 -195.8956 -3130.454 
-1607.156 -153.4156 -3105.308 
-1738.368 -258.0844 -3198.191 
-1717.975 -207.7587 -3173.942 
-1678.999 -160.4197 -3149.488 
-1634.994 -124.2880 -3120.172 
-1773.456 -224.3766 -3233.024 
-1751.853 -174.6008 -3189.147 
-1719.862 -132.8751 -3174.448 
-1682.080 -77.01403 -3152.150 
-1572.260 -558.5735 -3076.368 
-1600.921 -548.5255 -3027.711 
-1598.564 -519.7441 -3103.430 
-1620.976 -521.4035 -3045.346 
-1609.705 -496.6014 -3031.749 
-1647.478 -477.8844 -3122.281 
-1674.448 -426.1561 -3141.645 
-1717.145 -407.4813 -3152.019 
-1763.356 -365.5359 -3179.604 
-1736.848 -328.4378 -3164.717 
-1682.082 -254.6481 -3134.030 
-1673.299 -238.8643 -3140.274 
-1605.464 -139.0489 -3089.745 
-1791.883 -312.1652 -3197.236 
-1773.477 -281.2602 -3183.158 
-1830.944 -286.3477 -3229.582 
-1814.617 -243.0517 -3203.342 
-1699.931 -312.5352 -3143.871 
-1625.238 -222.0606 -3102.104 
-1587.807 -185.1914 -3087.561 
-1677.332 -240.1987 -3132.281 
-2155.975 198.4118 -2146.072 
-2135.227 247.0616 -2087.718 
-2116.422 289.9557 -2032.148 
-2182.425 238.3333 -2187.341 
-2165.641 287.3137 -2117.629 
-2152.583 321.8012 -2090.888 
-2134.096 287.3396 -2339.414 
-2211.164 286.3549 -2231.988 
-2217.726 318.6903 -2145.005 
-2179.187 376.1607 -2123.385 
-2240.811 356.4745 -2182.876 
-2222.634 415.2307 -2133.060 
-2268.114 398.7644 -2242.611 
-2249.030 457.5236 -2165.966 
-2255.968 484.5011 -2275.565 
-2249.275 487.7940 -2256.403 
-2223.971 534.1210 -2242.719 
-2295.037 529.8325 -2122.686 
-2331.797 532.6330 -2061.290 
-2213.504 574.1911 -2173.230 
-2082.212 176.3951 -2302.098 
-2105.091 178.2484 -2264.831 
-2141.152 176.6272 -2209.646 
-2156.906 212.8520 -2150.262 
-2129.599 277.8041 -2065.803 
-2137.888 317.2333 -1983.105 
-2156.729 310.8358 -1945.464 
-2188.798 304.3885 -1882.174 
-2107.564 227.7559 -2334.782 
-2127.542 228.6950 -2273.947 
-2182.271 230.2967 -2222.890 
-2178.870 253.5298 -2154.038 
-2149.707 346.5100 -2069.237 
-2168.313 341.8762 -2021.095 
-2191.970 342.3130 -1953.064 
-2235.898 350.3636 -1918.957 
-2164.575 272.8852 -2291.358 
-2210.327 259.4818 -2250.446 
-2137.402 281.5073 -2341.166 
-2210.815 309.1620 -2169.519 
-2178.689 386.8246 -2096.045 
-2201.115 386.1839 -2037.633 
-2248.394 389.6609 -1981.842 
-2260.254 383.1767 -1923.856 
-2167.303 333.7869 -2363.909 
-2198.276 338.4796 -2306.990 
-2236.513 344.4039 -2246.618 
-2240.040 351.3774 -2198.368 
-2219.569 436.4072 -2117.236 
-2240.860 425.4918 -2048.003 
-2272.390 436.5952 -2003.983 
-2206.952 387.1763 -2380.820 
-2223.441 394.4350 -2335.062 
-2259.058 387.8894 -2261.485 
-2265.988 431.7612 -2201.907 
-2254.504 459.9883 -2138.026 
-2280.295 473.6127 -2073.876 
-2313.560 472.0511 -2030.577 
-2253.441 475.2887 -2266.952 
-2253.609 519.7940 -2198.748 
-2291.190 523.5994 -2140.125 
-2349.709 528.4336 -2041.669 
-2203.636 536.8447 -2233.818 
-2287.073 549.6251 -2074.354 
-2141.807 197.6933 -2141.218 
-2128.281 224.5892 -2052.850 
-2104.475 268.9870 -1979.642 
-2133.153 317.5375 -2063.554 
-2135.887 276.7818 -2342.026 
-2191.038 305.3888 -2304.848 
-2218.367 295.8828 -2251.634 
-2262.216 384.0820 -2198.351 
-2207.928 423.3402 -2379.755 
-2250.334 428.7981 -2321.383 
-2274.716 425.4798 -2281.186 
-2167.462 475.8459 -2356.463 
-2203.233 487.2701 -2301.796 
-2249.655 475.4775 -2205.148 
-2147.251 516.0328 -2334.356 
-2176.913 514.8469 -2285.607 
-2300.755 511.6667 -2085.921 
-2100.652 573.7572 -2319.537 
-2141.662 578.4349 -2279.422 
-2178.648 571.5397 -2225.422 
-2258.845 481.4798 -2263.375 
-2217.991 529.0187 -2237.657 
-2254.103 547.4154 -2199.254 
-2286.003 535.9156 -2149.662 
-2340.013 531.2336 -2051.526 
-2209.831 581.7751 -2174.523 
-2261.236 588.3224 -2123.191 
-2291.645 582.4962 -2085.995 
-2329.631 599.3904 -2039.414 
-1205.248 -1158.193 -1355.685 
-1241.106 -1101.752 -1383.798 
-1273.201 -1074.187 -1396.378 
-1319.811 -1023.889 -1410.931 
-1357.442 -999.5198 -1445.495 
-1808.292 -171.3334 -3415.455 
-1766.793 -128.9487 -3413.008 
-1741.140 -88.74139 -3404.691 
-1701.274 -45.15706 -3377.979 
-1760.119 -39.88723 -3260.332 
-1677.857 13.44584 -3350.320 
-1637.128 44.61896 -3337.393 
-1913.495 -151.5555 -3351.956 
-1819.731 -103.3268 -3444.488 
-1855.280 -101.1520 -3350.248 
-1782.656 -40.23977 -3407.938 
-1829.208 -51.75839 -3332.408 
-1750.684 -3.204080 -3388.829 
-1793.522 -5.750752 -3305.777 
-1718.165 38.82830 -3373.454 
-1752.301 44.27032 -3290.652 
-1692.660 90.92533 -3348.238 
-1742.515 77.58373 -3257.198 
